# 3D point list with one line of data per point:
#   POINT3D_ID, X, Y, Z, R, G, B, ERROR, TRACK[] as (IMAGE_ID, POINT2D_IDX)
# Number of points: 393, mean track length: 4.0841546626232
359 0.4066684251665912 0.06933000612948177 0.5814442701651478 63 27 0 0.05541168050530987 3 2036 2 1792
360 -0.04507468058883637 0.0890186163607446 0.5564993794888592 117 68 57 0.4115619105730891 3 2040 2 1477 4 1867 5 1752
361 -0.0028417151228891163 0.12084906984618828 0.5662191857157352 27 24 43 0.262053338754222 3 2052 2 1769 4 1608
362 -0.02538171950383861 0.12989240863492751 0.5460675583005511 20 33 55 0.34372720233249676 3 2056 2 1765
363 -0.025856599287956448 0.1337405627540778 0.5528258837674448 64 74 88 0.43136680135838307 3 2057 2 1530 4 1623
364 -0.027205037753938902 0.13369519681160397 0.5564481829614121 64 74 88 0.13057912273941247 3 2058 2 1531
365 0.347202975172922 0.1690666072518338 0.5990416091033716 135 41 60 0.023090960591144707 3 2062 2 1820
366 0.06651014782527598 0.17140839070534583 0.5808565964488005 53 71 98 0.9619843988047289 3 2064 2 1790 1 1609 5 1437
367 0.06651014782527598 0.17140839070534583 0.5808565964488005 53 71 98 0.9619843988047289 3 2065 2 1791 1 1610 5 1436
368 -0.03057817341442378 0.20165572416588579 0.5329948773674686 181 131 147 0.21644706647643985 3 2073 2 1560 4 1651 1 1608
369 -0.058506749050173765 0.249570018360549 0.5046064475869955 165 148 145 1.4603681940067321 3 2090 2 1946
370 -0.04732268790714735 0.2499616051967673 0.5067620382496412 186 170 193 0.33937582018356294 3 2092 2 1581 4 1919 1 1422 9 1890
371 -0.04732268790714735 0.2499616051967673 0.5067620382496412 186 170 193 0.33937582018356294 3 2093 2 1580 4 1918 1 1421 9 1889
372 -0.028671167668732296 0.24743004572985325 0.5066137541924678 177 188 206 0.3914659655768984 3 2094 2 1800 4 1920 9 1523
373 -0.015902348414494 0.25829066318218374 0.5037034783047468 162 185 204 0.18307355567129446 3 2096 2 1809 4 1923 9 1532
374 -0.015902348414494 0.25829066318218374 0.5037034783047468 162 185 204 0.18307355567129446 3 2097 2 1810 4 1924 9 1533
375 -0.036859179004587836 0.2730346599298217 0.49885653397587004 147 35 36 0.9658509902944308 3 2102 2 1805
376 -0.0023507029008402068 0.27639736922259334 0.4977836677662898 54 41 58 0.11745113419285112 3 2105 2 1815
377 0.24843008483462858 0.2945202412044192 0.5389288530086322 126 122 123 0.5672076195999418 3 2110 2 1991
378 0.25822088596097625 0.2816319506718539 0.5395962887221698 77 68 71 0.43531933695960845 3 2111 2 1858
379 0.0755035289918817 0.2938624364642303 0.476055941852583 86 131 169 0.2623444201495044 3 2115 2 1627 4 1931
380 0.09820629147524965 0.2862655359022714 0.4812314436706023 232 226 207 0.04978837665060923 3 2118 2 1970
381 0.08946614822665373 0.2930189933300529 0.474906004332867 14 43 88 1.5109558989090983 3 2119 2 1629 4 1933 1 1465
382 0.13848400544792774 0.2822891340375159 0.47810190495967586 151 154 136 0.07249187463965352 3 2124 2 1832
383 0.19988152226415867 0.30294343412445723 0.5234715859870401 170 180 196 0.4952435337119433 3 2125 2 1857
384 -0.047293840825995234 0.31610122036602045 0.5143159642736672 145 129 122 0.3001212511725737 3 2129 2 1618 1 1450
385 -0.006911152277865871 0.2994337363412634 0.4892556931206223 183 160 180 0.522084877654898 3 2131 2 1619 4 1948 1 1452 8 2339 9 1899
386 -0.006911152277865871 0.2994337363412634 0.4892556931206223 183 160 180 0.522084877654898 3 2132 2 1620 4 1949 1 1453 8 2338 9 1900
387 0.08760172037543473 0.30006616482313225 0.4671932837016723 159 211 245 0.32024543245762993 3 2134 2 1839 4 1937 1 1648 7 2254 8 2291 9 1418
388 0.09764999265514412 0.3159260982993649 0.45956937420623395 116 72 60 0.4303178886846647 3 2139 2 1851 4 1951 1 1657 7 2257
389 0.09764557880849276 0.3160741381599942 0.45975451880132134 116 72 60 0.4358749612079 3 2140 2 1852 4 1952 1 1658 7 2258 8 2292 9 1422
390 0.0962694951094914 0.32207563075346407 0.45954330257493586 152 146 120 0.9350508794291589 3 2143 2 1848 8 2113
391 0.09766875022471298 0.32696998343691797 0.45401566373920726 123 85 92 0.413540266754056 3 2144 2 1849 1 1489 4 1759 8 2097 9 738
392 0.09781543773735825 0.32694926343414876 0.45404072753396946 123 85 92 0.529996517789586 3 2145 2 1850 1 1490 7 2114 8 2096 9 739
393 0.1316538634967882 0.3193504469813288 0.46106875762661775 172 147 106 0.33798068986505453 3 2148 2 1855 4 1956 1 1667 6 2047 7 2076 9 1354
394 0.13162422986130803 0.3193365167029109 0.4610118356374253 172 147 106 0.33323415014073626 3 2149 2 1856 4 1957 1 1668 6 2046 7 2075 8 2083 9 1353
395 0.13985231108931073 0.32011856367518243 0.46038069278879384 168 146 111 0.22732782404750793 3 2150 2 1864 4 1958 1 1502 7 2073 8 2070 9 617
396 0.13985014579526664 0.32004017273687646 0.4602573787827325 168 146 111 0.16954581754331555 3 2151 2 1865 4 1959 1 1501 7 2074
399 0.0034177769184640908 -0.006334301844967134 0.5774703137827645 137 132 130 0.5285649543651787 3 2193 2 1879 4 1995
400 0.0022453987774493345 0.00403841830300324 0.5775155240578629 117 113 106 0.45955244481002744 3 2194 2 1884 4 1996 5 1729 6 2137
401 0.0065009969176804275 -0.001590184306318195 0.5788422999759176 93 82 73 0.43868098740482225 3 2195 2 1700 4 1826 5 1568 6 2011
402 0.05280278430314777 -0.014433432286444964 0.5964751519518763 12 19 25 0.3383820026687708 3 2196 2 1702 4 1992 5 1710 6 2120 7 2446
403 0.06885531343162657 0.021671082056049094 0.5789828454952811 51 55 41 0.6565378238240612 3 2201 2 1903 4 1830
404 -0.07639849747390388 0.09215062924712082 0.5546638628589773 112 139 161 0.0746687929131748 3 2225 2 1908
405 -0.04866047523558423 0.08571653628101268 0.5575723681090302 168 148 105 0.5258851338232025 3 2226 2 1731 4 1866 5 1747 9 1846
406 -0.04040584702957062 0.08848627244552809 0.556832072464804 172 155 123 0.4049052944903985 3 2227 2 1732 4 2020 5 1750
407 -0.04047185345606332 0.08847037243973546 0.5568993468595327 172 155 123 0.4576082233886108 3 2228 2 1733 5 1751
408 -0.036618680746682855 0.09154666832806653 0.5551758635732875 102 70 66 0.5594280882790055 3 2229 2 1510 4 2021 5 1846
409 -0.01239905739505623 0.08847664086437264 0.5553994720829112 179 152 86 0.0155378026665072 3 2230 2 1921
410 -0.00903045472104849 0.11897240939477191 0.5568908610382376 24 33 51 0.15027773415248566 3 2237 2 1768
411 -0.049625019814510375 0.13891380815705792 0.5379118391394254 21 35 66 1.2134156534232245 3 2243 2 1925 1 1844
412 -0.02319412009420689 0.12738564038357564 0.5530345356122326 22 33 56 0.0637275507410023 3 2244 2 1766
413 -0.02132561390975427 0.13078069118928107 0.5561081533606087 59 69 83 0.0786403399172312 3 2245 2 1926
414 0.2204379269997485 0.14856763652826402 0.6062114492815397 24 35 55 0.7744570089626187 3 2249 2 1943 4 1597
415 0.21939754883656085 0.1485402874963603 0.6001340628659737 24 35 55 1.0436862574061359 3 2250 2 1573 4 1871
416 0.028389932633413516 0.1556558822745858 0.5825167546878083 115 131 141 0.769912199957972 3 2251 2 1786 4 2223
417 -0.0841882541034891 0.18600892860729748 0.5452095766824879 98 109 130 0.41499987031268126 3 2256 2 1546
418 0.1535510936498013 0.2059022963351657 0.5690853003506768 155 185 200 1.1003696513099288 3 2268 2 2067
419 0.3432709894568351 0.21333962144077268 0.5831764072309001 116 116 114 0.4573873780868694 3 2269 2 2081 4 2036 5 1720
420 -0.029319386992485694 0.23166159180674514 0.5149664792915647 148 170 187 0.262241083717826 3 2272 2 1795 4 2048 1 1623
421 -0.022103860395825035 0.23958803613918314 0.5120920181740124 147 145 161 0.45298582633521683 3 2274 2 1950 4 2051 1 1625 9 1521
422 0.29732450317780246 0.2512200791797969 0.5631536262836893 119 119 117 0.35768633165225877 3 2277 2 1980 4 1895
423 -0.023384254064930537 0.253224445553199 0.5058807573034811 172 184 205 0.5177293467538546 3 2279 2 1949 4 2054 9 2166
424 -0.014461813570036204 0.24872220207363105 0.506875220547963 154 174 198 0.46844888844946403 3 2280 2 1801 9 1488
425 -0.020279334104902416 0.257810817298993 0.5037614922566913 155 67 87 0.18865422106229376 3 2281 2 1807 4 2056 1 1750 9 1895
426 -0.020279334104902416 0.257810817298993 0.5037614922566913 155 67 87 0.18865422106229376 3 2282 2 1808 4 2057 1 1751 9 1896
427 0.10747095706335134 0.28421716655126733 0.4770241701564251 152 151 134 0.05327024987067719 3 2287 2 1971
428 0.11133373737977044 0.2868694640204843 0.4749317112819334 31 31 69 0.02691448935254189 3 2288 2 1972
429 0.22762511708425634 0.2966833101666749 0.5259910538071126 165 171 189 1.0197077565160095 3 2289 2 1990 5 1620 6 1866 7 1772 8 1716 9 1312
430 -0.0022421683198857578 0.31453555806510275 0.48411427274574104 151 34 46 0.8780100041532353 3 2292 2 1969 4 2074 1 1642
431 0.09226069422648038 0.2999903358962611 0.4670629995603476 0 43 98 0.48753456280491153 3 2293 2 1841 4 2066 1 1649 7 2252 8 2289 9 722
432 0.09855044762789342 0.30154700457350103 0.46684679128581263 32 55 104 0.42043104719133634 3 2294 2 1842 4 2067 1 1651 7 2251 8 2288 10 379
433 0.11307232832134777 0.3002534939784817 0.4693402756178043 148 142 77 1.1008883183547196 3 2295 2 1976 4 2068 6 2043 8 2093 9 1351
434 0.12368111615993686 0.3130124237196959 0.4643884569337406 148 135 89 0.40187528283321683 3 2296 2 1986 4 2071 1 1787 6 2160 7 2224 8 2271 9 1775
435 0.12803072205668237 0.30588083567344376 0.46831368364308296 87 51 61 0.3609089445297749 3 2297 2 1853 4 1941 1 1659 6 2044 7 2072 9 1352
436 -0.00864767109229733 0.3218241232847313 0.4971729520972894 164 151 149 1.3592443838509798 3 2302 2 1825 4 2254
437 0.10441808393709659 0.3189821782003823 0.45935806423083625 149 140 94 0.4827015050239116 3 2305 2 2086 4 2070 1 1784 7 2368 9 1425
438 0.11081121874648162 0.3265029176454054 0.45608905087378915 156 146 124 0.4783793422927148 3 2307 2 1985 4 1964 7 2243 8 2279 9 1424
439 0.11080549351885173 0.3264409246939248 0.4560465300774449 156 146 124 0.4675574963527994 3 2308 2 1984 4 1963 7 2244 8 2278
440 0.12864649185069604 0.3231391114187181 0.4597470732806751 153 140 98 0.3024388184575532 3 2310 2 1993 4 2072 1 1666 6 2048 7 2225 8 2272 9 1355
441 0.10860749530966952 0.33044402407604995 0.45390742409252993 154 147 118 0.3465237165468955 3 2315 2 1992 4 2076 1 1663 9 1426
442 0.07692943906455937 -0.04958552667398463 0.611978643434339 31 31 31 0.3982623157668049 3 2328 2 2010 4 2097 5 1815 6 2205
443 -0.21574134685183557 -0.03249203599290582 0.665030134058118 151 154 155 0.9538292807840673 3 2341 2 1877
444 0.11098746665076462 -0.02759077124690085 0.6686239492128209 140 138 130 1.4286951809283184 3 2345 2 2119
445 0.11540954806248034 -0.01833699909970369 0.6702233551723218 92 88 81 1.0069852752098578 3 2346 2 2018
446 0.2312063631175794 0.014680299160108762 0.6721742007718051 130 130 126 0.9035935139918596 3 2354 2 2037 4 2110 1 1943 7 2430
447 -0.05901902493076183 0.08726196878487431 0.5569553078016687 178 159 132 0.9219655135003588 3 2365 2 2024 4 2018
448 0.3571393652163296 0.0975981664692371 0.6413531410269475 133 118 100 0.45029776146548006 3 2366 2 2060 5 1813 4 2115 6 2094 7 2312 8 2398
449 -0.024308026670222443 0.13722212252606325 0.5589527198454339 28 33 51 0.46240956449933784 3 2373 2 1930
450 0.3330075089484595 0.16019002524385836 0.6018238381748073 159 29 35 0.7389976654910412 3 2376 2 2069 4 2122 1 1973 5 1706 6 1984 7 2176 8 2400 9 1699
451 0.3322033367920798 0.16024405758895413 0.598318441061778 159 29 35 0.5444654719473917 3 2377 2 2070 1 1974
452 0.3228390860034841 0.16677663034564832 0.5980174076030057 34 39 55 0.7552394806007862 3 2379 2 1957 1 1886
453 0.32976387282730074 0.1665310257765177 0.5980867535679428 151 171 186 0.7474999629717202 3 2380 2 2071 1 1979 10 2290
454 0.36017771469132126 0.16973841236901535 0.6002263989939173 150 170 183 0.8059788905097356 3 2382 2 2076 4 2123 1 1892 5 1707 6 1983 7 2177 8 2393 9 1700
455 -0.050796768475224886 0.1808094018643233 0.5779862675558701 138 134 135 0.47291444319361764 3 2387 2 2050 1 1853
456 -0.030452035446988563 0.23743753400267595 0.5119901095653306 65 67 93 0.5001119800013464 3 2394 2 2061 4 2141 1 1868 9 2160
457 -0.0359774086940531 0.249015565056054 0.5066400413231064 157 54 76 0.4025419967670237 3 2400 2 1947 4 2146 1 1872 9 2164
458 -0.012713702089101723 0.2510794755528679 0.5068489032290469 97 108 129 0.2224336899309042 3 2402 2 2062 4 2148 9 2148 10 397
459 -0.01912230783605608 0.2621083081838323 0.5023469039613216 168 189 208 0.2921460873518645 3 2403 2 1955 4 2149 1 1882
460 0.22320271737737662 0.2951298856478859 0.5283614835094732 167 29 45 0.7453808703026306 3 2406 2 1988 4 2144 1 1792 5 1849 6 2125 7 2200 8 2240
461 -0.14988447386533477 0.2828136774619009 0.5226113182017345 150 139 134 1.261421653259368 3 2407 2 1799 1 1867
462 0.08044772476109328 0.2915425104847069 0.47520754159289624 30 40 84 0.38892606309765876 3 2409 2 2079 4 2154
463 0.13284552534464256 0.2862092438213299 0.4763066545073576 24 32 73 0.5766144673752154 3 2410 2 2083 4 2150 1 1781 7 2354
464 0.19514525125473198 0.3056111357281468 0.5277282101025713 85 70 69 0.44546081345554484 3 2412 2 1987
465 0.24134754030675196 0.30326910363220055 0.5363673593449511 129 123 127 0.3656910962327971 3 2413 2 2160 4 2145
466 -0.008149457606130254 0.30484964419067123 0.4879968056180669 149 28 34 0.4944628258614155 3 2415 2 1960 4 2168 1 1770 8 2564
467 -0.008112819163241398 0.30452528665647943 0.4870857991290554 149 28 34 0.33893681136080767 3 2416 2 1961 4 2167 9 2174
468 -0.005064735957172697 0.31088509625425725 0.4855008349604439 152 32 42 0.5780279212802479 3 2418 2 1962 4 2253 1 1772
469 0.08495393597603208 0.30728098778667845 0.4644203265807694 177 150 89 0.6492379510933904 3 2420 2 1975 1 1778 8 2451 9 2101
470 0.1152319320906707 0.3088675085611778 0.4652292272614105 153 140 86 0.4836889724110055 3 2421 2 2088 4 2160 1 1786 6 2164 8 2437 7 2239 9 2083
471 0.11524244926859016 0.30894062640994174 0.4652893553577765 153 140 86 0.292751609174859 3 2422 2 2089 8 2438
472 0.10197554328202524 0.32418689188447447 0.45524429230756824 155 149 119 0.4395959308346893 3 2425 2 2087 4 2172 9 1819
473 0.13536638924224173 0.32209846677277376 0.4596077967017651 133 66 65 0.4361439705719983 3 2429 2 2094 4 2163 1 1907 6 2161 7 2356 8 2435 9 2084
474 0.21895599770384602 -0.03460490521700354 0.5949630044421145 39 45 54 0.5527344865658061 3 2452 2 2019 4 2269 1 1922
475 0.22955974883470393 -0.03577837079096101 0.5861008547809462 69 18 20 1.098155342334622 3 2455 2 2120 4 2267
476 0.16406628722752373 0.003719290677818372 0.6677243616805096 164 186 200 1.1726974796961664 3 2459 2 2183 4 2281 1 2071 5 1897 6 2107 5 1818 7 2490 8 2616
477 -0.017567956459546438 0.13418778471259882 0.5683649136027116 27 36 48 0.1661253540912362 3 2476 2 2129
478 0.045708535465862773 0.13309891713230912 0.5557213313644151 32 35 38 1.7859403779576377 3 2479 2 2130 4 2212 1 2036
479 0.35382110331196354 0.16603018298237546 0.6041482934645325 156 38 53 0.2671181543166986 3 2481 2 2145
480 -0.046381278765194205 0.23585546906426474 0.5110325917346471 153 144 167 0.4990116460622106 3 2489 2 2142 4 2227 1 1961 9 2472
481 0.09084381335769443 0.29077558708399387 0.4753099688850221 60 64 56 0.44151949912232175 3 2497 2 2146 4 2242
482 0.1585640546758783 0.29826729683222347 0.47318737551190004 134 161 183 0.7555946227588121 3 2498 2 2156 4 2151 1 1989 5 1767 7 2345 8 2428
483 0.2039754346529498 0.29600574926434015 0.5241371627091173 170 27 43 0.8826533050153481 3 2500 2 2158 4 2231 1 1901 5 1963 1 1991 6 2215
484 0.2040690628791548 0.2961198659983251 0.524596102237324 170 27 43 0.6854241405693782 3 2501 2 2159 4 2230 1 1992 6 2216
485 -0.013974616956400912 0.29869452183120226 0.49040248833522837 153 27 34 0.9774861770711927 3 2502 2 2078
486 0.10374380792717992 0.3033462539095 0.46676713632565014 155 145 77 0.23699199752272285 3 2504 2 2149 4 2243 1 1898 2 2082 7 2455 8 2536 9 2296
487 0.10408160117775367 0.3162841900014467 0.45968976786667204 140 128 83 0.7625105013181013 3 2505 2 2153 4 2248 1 1985 8 2537
488 0.14402443618028044 0.3169770540141352 0.4616465985059387 110 67 60 0.3597869636529619 3 2508 2 2091 1 1909 6 2229 7 2441 8 2529 9 2082
489 0.11609567708941237 0.3292731719896291 0.4565365414257038 114 65 53 0.18733622678584255 3 2510 2 2161
490 0.10718463350002114 -0.005208450072501648 0.6650654299146204 98 96 84 0.5015099426673103 3 2523 2 2217 4 2193
491 0.13302264265661826 0.008865948945051114 0.6639089188440216 159 181 194 0.5517040242265212 3 2524 2 2182 4 2280 5 1947 6 2324 7 2536 8 2693
492 0.21973476525778327 0.0016090107345777195 0.6694442469647991 115 126 124 0.539700579440098 3 2525 2 2126 1 1937
493 0.2402459741725868 0.009647135343161839 0.6716643485063496 72 72 68 0.9868314249043479 3 2526 2 2189 4 2279 6 2264 7 2485
494 0.09259835571758546 0.04713382588180799 0.6405541096464227 94 112 120 0.25279095469459045 3 2533 1 2117
495 0.07871762259976323 0.10945817200950894 0.6121512559148837 127 150 167 0.6283309515674806 3 2536 2 2193 4 2286 1 2077 5 1954 6 2333 7 2547 8 2664
496 0.026596672432263112 0.1641702973087209 0.5892911809396804 86 79 73 0.5122603220275292 3 2539 2 2135 4 2291 5 2005
497 0.026596672432263112 0.1641702973087209 0.5892911809396804 86 79 73 0.5122603220275292 3 2540 2 2136 4 2290 5 2004
498 0.022772814434846664 0.1731403985798808 0.5833235677812467 146 143 138 1.336498238720834 3 2541 2 2138 4 2294 1 2043 5 2006 9 2570
499 0.10769991351551983 0.3087781158171216 0.46459698202319527 134 91 82 0.34084982091454785 3 2548 2 2151 4 2246 1 1987 10 1646
500 0.11076757370375397 0.32108256176816913 0.45932952750921485 140 91 79 0.5017997355573451 3 2549 2 2207 4 2302 1 1988 8 2609 9 2300
501 0.01452194003705754 0.34507159245813845 0.503783242349661 163 157 161 0.38531458191815793 3 2552 2 2148 4 2306 1 1980
502 0.21043173535472756 -0.037320998641889445 0.6263856452365347 88 27 25 2.0084674994237592 3 2560 2 2175 4 2357
503 0.11862146724396222 0.006435478754938186 0.6629400657248652 54 51 44 1.7430680844686026 3 2563 2 2181 4 2316 1 2107 5 1988 6 2327 7 2537 8 2696
505 -0.05264354729453852 0.06036879669605959 0.5755055537590928 160 177 188 1.1606881278682584 3 2569 2 2172 5 2045
1235 0.06315505950571554 0.02596605097866566 0.5738454260998701 99 99 91 0.39650584351097723 6 647 7 1497 8 1491
126 0.1529115820434139 0.3002912465218048 0.4700816764031116 96 114 139 0.47710302078891037 3 925 2 898 4 1362 1 649 5 1207 6 1316
1239 0.0658596514077984 0.03144780249600775 0.5679053556729354 48 39 32 0.9165809990643673 1 103 7 1507 8 1447 6 653
130 0.15333089874020317 0.30485437535002363 0.46737938016273434 154 179 197 0.3194650145464521 3 931 2 904 1 655 6 1323 8 347
1240 0.06749699000412836 0.03383801761861102 0.5695826369958846 99 97 87 0.12084757637808234 6 589 7 1508 8 1446
131 0.15203209466090822 0.31266970264471294 0.4633323563032493 134 121 102 0.45578938060042634 3 933 2 896 4 1372
1241 0.06749699000412836 0.03383801761861102 0.5695826369958846 99 97 87 0.12084757637808234 6 588 7 1509 8 1445
132 0.20252695927054506 0.3159240180312386 0.5182205048655265 176 128 140 0.05739550662163234 3 939 2 943
1242 0.11650798653360243 0.33464357610335266 0.4523013048645533 120 89 55 0.362097109257578 1 1212 7 1525 8 1298
133 0.10074320909547997 0.31595916760844983 0.4577631111618451 168 148 123 0.1560796813502812 3 959 2 855
1243 0.04910564467618011 0.017744385351566222 0.5796897607858962 40 34 36 0.3194559309337949 6 631 7 1537 8 923
134 0.10670529190992355 0.3206512518391567 0.4573644083782237 96 64 34 0.354466998298932 3 962 2 859 4 860 1 607
1244 0.045217863825007316 0.017111147289227687 0.5807695970018768 56 46 50 0.10669743071830125 6 636 7 1539 8 927
135 0.10753998408253446 0.32713442872199017 0.4541187633883821 126 117 82 0.21015519637272645 3 964 2 863
1245 0.051242968971562115 0.02878613291857967 0.5730281780345412 46 39 32 0.2183057787631101 6 656 7 1541 8 1511
136 0.12932937688530835 0.3203115835242275 0.4607226362469416 113 77 51 0.2526816725622949 3 969 2 873 4 863 1 697 6 866 7 792
1246 0.049781524811907195 0.029829445676404467 0.5727314660139924 95 92 84 0.20903984911691095 6 657 7 1542 8 1575
137 0.14319348184917052 0.31429923285908107 0.46259124226912807 94 66 41 0.14218753335330364 3 971 2 895
1247 0.037918264317438985 0.02238066584327786 0.5744590692333205 102 103 98 0.7755770607949305 1 19 7 1543 8 1574
138 0.1387726519097476 0.3210017687728398 0.45966937275348196 183 145 114 0.28251924209326823 3 975 2 938 4 867 1 705 6 861 7 788 8 368
1248 0.03813339213067905 0.02425344677420792 0.5734569341053719 48 42 45 0.8551837410530686 1 20 7 1544 8 1972
139 0.1444208704621619 0.3202555469495902 0.4598178267289387 179 146 125 0.16202232471461528 3 978 2 939 4 870 1 709 8 365
1249 0.03981426123533193 0.026998009203543092 0.5752190833986407 97 102 98 0.08231780044755528 4 222 7 1545 8 1583
1250 0.03336580475312235 0.016226667258105676 0.5814261109087362 55 49 53 0.13223884597582258 6 684 7 1567
1251 0.0381235277371824 0.035431576338772953 0.5712458321483328 88 93 98 0.17924411597018083 6 696 7 1569 8 1585
142 0.22239780983856186 -0.07951523826108066 0.5959772824224813 19 34 47 0.018101190670169076 3 1080 2 994
1252 0.08657047879396564 0.29444774757058007 0.4695743100110218 71 133 176 0.17051816098782524 1 568 7 1577 8 1376
143 0.24730181446428806 -0.06412714670067367 0.5867979485167389 7 23 36 1.1668843734264318 3 1089 2 1029
1253 0.48716851218964075 0.3285202956243461 0.5411859543467127 170 171 169 0.47950080581378146 6 1522 7 1668 8 1673
144 0.5221152405439279 -0.13013785118993046 0.7585280814658107 104 99 95 1.0205887595742198 3 1094 2 1750 7 1639 5 922
1254 0.20450003182736173 -0.05794210897237313 0.6084829506838103 182 173 185 0.1384122631548517 6 1099 7 1730 8 1793
145 -0.09823195842193831 -0.08111286465348065 0.6950862453721952 72 69 69 1.1297424217649552 3 1107 2 974 4 1046 5 1064 6 1706
1255 0.2070588250844912 -0.051552109366477944 0.6712643679301623 126 116 116 0.4987059177436814 6 371 7 1738 8 2100
146 -0.08730675956325781 -0.07342399917026265 0.6968569704171068 136 129 119 0.6945119308883106 3 1108 2 101 5 1066
1256 0.22427991853305967 -0.007740608719859814 0.6571663182819243 149 160 172 1.7052395879097437 2 1494 6 1539 7 1741 8 1799
147 0.06530611753167784 -0.04673932748739457 0.6112418188107569 49 54 44 0.338203558011056 3 1111 2 990 4 1026 5 1000 6 1572 7 2062 8 2345
1257 0.21703661612128322 -0.004297054920275854 0.6585631287890145 148 151 159 0.23451262289619998 6 1542 7 1742 8 1803 9 1693
148 0.06536934691169428 -0.046791598122330726 0.6111232172611148 49 54 44 0.255934570356957 3 1112 2 991
1258 0.20152789697080334 -0.02905745965620023 0.6596363527788848 115 76 90 0.3743096035996758 6 1128 7 1747 8 1833
149 0.2219613821476635 -0.034745433156769666 0.6119511138013033 110 116 126 2.5167563452898185 3 1136 2 264 5 965
1259 0.2094135792549739 -0.005721938707496529 0.6703786714841481 154 159 165 0.24654143325297576 6 1554 7 1761 9 1243
150 0.23930445362050734 -0.02827324871434236 0.5910651044156366 116 115 120 1.1183220761898771 3 1140 2 1088 4 47 1 914 5 281
1260 0.2182237296108829 0.1476145050727656 0.5997116510722083 47 63 91 0.10442765336642947 5 1060 7 1771
151 0.22690351170406012 -0.02801360043334377 0.5959608611629221 103 113 114 0.43366638339903624 3 1141 2 1083 4 1496 5 967 6 1079 7 1293 8 1216
1261 0.16948901844065908 0.31875675038147605 0.4712973586957734 174 174 169 0.9836640876938123 6 1324 7 1787 8 2049
152 0.23096487448706537 -0.026905079340269863 0.5962454258224443 108 120 122 0.9003933259221504 3 1142 2 1084 4 1013 1 911 5 282 6 291
1262 0.18326352294428677 0.21017364601848137 0.7424324656914706 193 208 226 0.238252652743458 5 1610 7 1792
153 0.23877056518986423 -0.025558968581778328 0.595048217501472 111 115 116 0.4018177362650886 3 1143 2 1085 4 1012 5 283 6 292
1263 0.13064849689030933 0.14986922190982926 0.5948494607243313 193 208 226 0.9617204092385517 6 2009 7 1793 8 2116
154 0.04506223094451727 -0.012613612864934665 0.5961850279802329 11 26 46 0.20756775001713726 3 1157 2 1005 4 1529 5 1346 6 1855 7 2103 8 2366
1264 0.1546859028635009 0.20879076093707344 0.5729183505603526 184 205 224 1.9525266817117828 5 1425 7 1795 8 2540
155 0.06558478104927198 -0.016744063588367147 0.5977397375246438 11 15 10 0.39075417157089554 3 1160 2 1015 5 1005
1265 0.15631940397993227 0.33499290240388135 0.45363648600040696 56 39 34 0.3452022203095723 1 1236 7 1805 8 1736
156 0.06567533047065699 -0.0014804376818891244 0.5883199431757201 44 51 43 0.48619078242780445 3 1161 2 1014 4 193 5 467 6 1595 7 2092
1266 0.12132224554375812 0.29261001576998086 0.472934232488059 108 140 144 0.2735938847467647 3 1887 7 1816 8 1812
157 0.2078419586895463 -0.015778027983427884 0.6531186706022997 66 47 62 0.14715770692997804 3 1164 2 327
1267 0.14205485745105717 0.3370697633139884 0.45092942349375004 42 50 88 0.08009358249412563 6 1702 7 1825 8 1755
158 0.04423855159610658 0.023409814045667846 0.5769138331580934 23 23 21 0.22732610971067757 3 1178 2 1073 4 1099 5 1048 6 1606 7 2107 8 2193
1268 0.13467766314751162 0.33896564733341705 0.45059322620854725 164 188 202 0.13728256435832542 1 1232 6 1704 7 1827
159 0.14510296497422268 0.008822760706290438 0.6588610497909065 140 26 45 0.5295804835236069 3 1184 2 1116
1269 0.12809880111655084 0.3398695445508328 0.45048238541809954 156 184 196 0.7003928080060563 4 1425 6 1722 7 1828 8 1778
160 0.20879379066266346 -0.006011378842748029 0.6689447044061382 122 134 132 0.40263468558536747 3 1186 2 332 4 1533 5 1325 6 1553 7 1760 8 1841
1270 0.05508309273746239 -0.002358138095057835 0.5901777864640995 43 43 47 0.44126583360269306 6 1229 7 1841 8 2189 2 171
161 0.21113479539191554 -0.0065112482916862705 0.6650617873874517 44 50 57 0.5693704190293216 3 1187 2 333 4 1063 1 908 5 977 6 1552 7 1759 8 1807
1271 0.06675358428983875 0.0024311480802326106 0.5854116857063194 82 83 73 0.2868123641951916 6 1230 7 1842 8 2158
162 0.2159583626700127 -0.005755267123893132 0.6610489035758991 115 127 131 0.5635001155861793 3 1189 2 336 4 1065 1 180 6 1146 7 1342 8 490
1272 0.4713286352944713 -0.40975525020640097 1.04707741962459 19 19 15 1.4483086324896668 6 1965 7 1985 9 1639
163 0.21368035407733735 -0.0002450615989672819 0.6770460881636612 68 67 69 0.6104326855975124 3 1190 2 403 4 1535 1 178
1273 0.22532707297006588 -0.05395657585353788 0.5907935545734243 214 238 250 0.17660619369142935 6 1518 7 2008 8 2065
1274 0.2060116994408193 -0.015797990066771996 0.6615112177094036 161 166 177 0.35804123773936786 6 1825 7 2027 8 2107
165 0.22436460152693571 0.0006767145040671149 0.6618472470976472 41 46 53 0.4315906515310937 3 1194 2 406 4 1076 1 947 5 984 6 1153 7 1309 8 484 9 310
1275 0.16222018781505843 0.3377282134127816 0.4531922706457056 116 139 158 0.5729416991616727 6 2040 7 2057 8 2053 1 1672
166 0.22436460152693571 0.0006767145040671149 0.6618472470976472 41 46 53 0.4315906515310937 3 1195 2 405 4 1075 1 946 5 983 6 1152 7 1308 8 485 9 309
1276 0.15083030754233967 0.3369027683193872 0.4513431490607867 148 174 195 0.18278629597108828 6 1923 7 2058 8 2055
167 0.23002895449752475 -0.0026095797407906145 0.6503284327348358 132 123 131 0.26342599150500584 3 1197 2 343 5 348
1277 0.07148956614320225 -0.01882033738390206 0.5978150196806654 77 74 70 0.4438277163838688 6 1581 7 2067 8 2323 9 437
168 0.23305592032145409 -0.002424961990730147 0.6497234388457259 53 38 50 0.39447218585688787 3 1198 2 1159 4 1079 2 1158 5 986 6 1141
506 -0.04710583777751271 0.07474375368055512 0.5653014152325011 100 66 51 0.14563260994726837 3 2571 2 2179
1279 0.12764362629024756 0.33224368139686544 0.45474125332598914 149 115 88 0.41399447822910845 6 1938 7 2079 8 1776
170 -0.054010969982723346 0.045991028479693746 0.5815851062483793 117 196 237 0.356379395494746 3 1203 2 218 4 1129
508 0.011259171653043128 0.15963693942949467 0.5983216256284177 134 130 131 0.8388747437903197 3 2578 2 2195 4 2331
1280 0.0515706299370816 -0.006519563863838192 0.592788868612268 44 41 38 0.4745977206338515 2 1009 6 1590 7 2089 8 2353 9 442
171 -0.047859588055759184 0.03981432706993861 0.5872783309103451 32 55 86 0.6869658096309764 3 1207 2 1050 4 1570 5 1599
509 0.05552046976827899 0.1594566687683948 0.5831509150232346 117 139 153 1.4545124140215897 3 2579 2 2229 4 2332 1 2082 5 2001 6 2286 10 2263
1281 0.0673516579088237 0.03956458180073886 0.5668858368531801 107 106 92 0.14883093755056642 6 1613 7 2094 8 2139
172 -0.031995790589118514 0.04767793187860787 0.5796273742852283 172 175 163 0.6020979204266097 3 1217 2 1059
510 0.11390807642426234 0.3033430556821672 0.4682941779550523 141 145 147 0.9036796968300539 3 2584 2 2205 4 2345 7 2540 8 2649 9 2433
1282 0.0673516579088237 0.03956458180073886 0.5668858368531801 107 106 92 0.14883093755056642 6 1614 7 2095 8 2140
173 -0.04102724286190837 0.026139642194374757 0.6329816576835076 121 107 95 0.3635980842292661 3 1220 2 225
511 0.03054069097795311 0.33344463902042615 0.5092460179582748 157 151 155 0.23914747696139751 3 2589 2 2204 1 1981
1283 0.05940865974805112 0.03717548952021949 0.5686459205056188 101 98 86 0.5521006000223702 6 1610 7 2097 8 2327
174 -0.08327212805662504 0.08072300939259311 0.561110297642838 34 35 68 0.12223576154573423 3 1259 2 1098
512 0.08930277368229128 0.3173818827120445 0.4597287945746569 173 177 175 0.639144712076351 3 2590 2 2206 4 2348 1 2060
1284 0.11531828696614128 0.3383876621139482 0.450420319959032 171 150 57 0.606604156662042 1 1497 7 2101 8 2089
175 -0.07997282474604174 0.09358818193584095 0.5564474918859115 21 42 102 0.002882154071665917 3 1260 2 283
513 0.11619202202414963 0.314795940670363 0.4628603371528631 148 128 81 0.47265354350436245 3 2591 2 2208 4 2300 1 2061 7 2541 8 2606
1285 0.25593126340214406 -0.08325502333411453 0.6030575286191384 209 229 244 0.5418501783374503 6 1970 7 2173 8 2409
176 -0.07468727297862092 0.09475773051245043 0.5505568959851234 152 177 207 0.3561292482110458 3 1261 2 284 4 1175
514 0.1068547614258614 0.3309326702479721 0.44917495200378343 138 146 148 0.02999947930238748 3 2592 2 2211
1286 0.20764732860139531 -0.04307119454554658 0.6083605710848378 117 43 54 0.6398164338711562 5 1528 7 2187 9 1664
177 -0.03451061329244084 0.084491992879585 0.5583885786054976 87 105 134 0.6842696558100971 3 1263 2 1103 4 349 5 1138
1287 0.2011125131146762 -0.043232494922601575 0.6614617767052466 125 115 113 0.5638484895325805 6 1533 7 2193 8 2281 9 1686
178 -0.027757426548678864 0.0898331694482658 0.5550117284366278 84 105 138 0.33123476858956297 3 1265 2 1132 4 1161
1288 0.1321335066644618 -0.006045890678114122 0.6706512034571707 149 117 100 1.133071599659585 1 1541 3 1694 7 2209 8 2459
179 -0.04161939998695964 0.09135777673076663 0.5558032413489318 166 134 112 0.1268815317716174 3 1267 2 368
1289 0.16580755268813943 0.3361373011306932 0.45479306681798304 50 39 60 1.0821983847334153 6 2039 7 2210 8 2414 4 2165
180 -0.041941178142269615 0.09716404538287186 0.5497634782725576 123 77 72 0.3899620062791982 3 1268 2 1127 4 1180
518 0.06505356012011959 -0.04545224875293033 0.6112214512749014 40 42 35 0.8256034121430339 3 2604 2 2247 4 2397 5 2068 6 2445 7 2645
1290 0.15342332219614463 0.3356286893206884 0.4536913870152255 49 37 33 0.4483809923552493 1 1670 7 2216 8 2054
181 -0.024877881184062017 0.09455452136994398 0.5536025809639573 173 198 215 0.2759439310114813 3 1269 2 376 4 364 5 1143
519 0.14862086621524107 -0.0004312288038026521 0.6673964945876677 177 19 19 0.7116401800918215 3 2605 2 2256 4 2363 5 2027 6 2415 7 2615 8 2753
1291 0.14697999680751386 0.33805606515272385 0.4519560433301112 125 148 168 0.4815852254985259 6 2049 7 2217 8 2071 9 1778
182 -0.024944678001937302 0.09456774315353135 0.5537056813735409 173 198 215 0.27067678161085257 3 1270 2 377 5 1144
520 0.2186273330625718 -0.0048149890481399785 0.6732919981233138 103 115 121 0.5816619561779585 3 2606 2 2262 4 2401 5 2065
1292 0.09231996122375913 0.30013591161817227 0.4672061458752039 14 42 87 0.5285193838488091 1 1650 7 2253 8 2290 9 723
183 -0.022739491325692723 0.09466954400865481 0.5543555957746954 84 105 134 0.4021300310499382 3 1271 2 378 4 365 5 689
521 0.4203530744444112 0.07185484114465315 0.5946320058954189 147 34 0 1.5705128481072554 3 2612 2 2288 4 2314 5 1940 6 2179 7 2294
1293 0.08586276593240218 0.3027746162801733 0.46518873873231875 15 81 124 0.7091072408179645 2 1638 3 1901 7 2261
184 -0.01716929370520269 0.099739068965423 0.5486223827002477 78 99 134 0.7430257457828594 3 1275 2 1135 5 1149
522 0.3442431316997004 0.16142004159583895 0.6035951581368788 161 31 40 1.5470066295892453 3 2622 2 2292 4 2371 1 2159 6 2362 7 2562 8 2675 9 2530 10 2616
1294 0.22552690715037005 -0.06391475045809257 0.5898735706227085 44 50 63 0.08576090398734627 6 1973 7 2316 8 2419
185 -0.06182103783018541 0.10458397531386183 0.5460569551648746 164 194 213 0.35851309655934377 3 1287 2 1126 4 1177
523 0.13933742317687603 0.17023189824957088 0.5871862742373276 20 30 33 1.1220218094652776 3 2623 2 2268 1 2154 5 2044 6 2421 7 2618 8 2724
1295 0.3011954641626174 0.24698889346829983 0.5695996638714076 121 105 95 0.2968146022625666 6 2203 7 2326 8 2402
186 -0.02897273561618701 0.12233627906160265 0.5424184477536009 10 27 61 1.5843248108768007 3 1297 2 1175 5 1440
524 0.13933742317687603 0.17023189824957088 0.5871862742373276 20 30 33 1.1220218094652776 3 2624 2 2267 1 2155 5 2043 6 2422 7 2617 8 2723
1296 0.06972218033426428 -0.04710855382016872 0.6116960035295292 74 70 56 0.21228108914683252 2 1695 7 2349 8 2565
187 -0.04045851190189695 0.13996763204666127 0.546610692803438 39 51 66 0.03805825554223209 3 1314 2 1170
1297 0.12674677459577696 0.3156251273520352 0.46244435162840275 99 58 48 0.741302439835092 1 1788 7 2359 8 2436
188 -0.04045851190189695 0.13996763204666127 0.546610692803438 39 51 66 0.03805825554223209 3 1315 2 1171
1298 0.10136544939075641 0.3304040098739951 0.4524172916175531 138 158 162 0.7769815687163303 2 2093 7 2371 8 2444
189 0.2811521564562502 0.16736768071946875 0.5948021614746071 153 178 195 0.5197889056619805 3 1328 2 1598 4 1616
527 0.21660650962495012 -0.026854907237640786 0.6188495890329524 82 33 32 0.7604553501480854 3 2644 2 2250
1299 0.24923140080959383 -0.06552858763889238 0.5971909957704379 55 67 76 0.1845292605599014 6 2083 7 2415 8 2517
190 0.330284219439533 0.1604486671728518 0.6020388114376364 98 38 62 0.17531277110002394 3 1329 2 1600 10 1455
528 0.24447081613077595 -0.011505851609834165 0.6572125977025517 106 120 129 1.9584020506299231 3 2646 2 2283 4 2398 5 2026 6 2361 9 2626
1300 0.3561493594136568 0.2071079725176421 0.5888889035228632 153 151 143 0.9522639444090822 6 2265 7 2416 8 2585 9 2407
191 0.3304408394990704 0.16052852775240567 0.6025010471291735 98 38 62 0.0022039543141305303 3 1330 2 1601
529 0.331729589649567 -0.021521380942109366 0.6877458748828013 131 130 125 0.6207282263755429 3 2647 2 2303
1301 0.23956884916201696 -0.22381812159139888 0.7914877120581308 39 42 49 1.207573779946865 6 2180 7 2424 8 2653
192 0.3425983419387225 0.17130120677354166 0.5942067110076343 158 173 189 0.2560006532576155 3 1334 2 1616 4 1168 1 1460
530 -0.04360941403463018 0.04777066401677386 0.5833404694286732 84 153 192 1.6506084394499425 3 2648 2 2280 4 2407 5 2079
1302 0.2118820638197719 -0.02255408564871969 0.6299953582869218 92 88 81 1.3647200971190336 6 2195 7 2429 9 2401
193 0.3604022918404497 0.16695864977615774 0.6010866491897682 171 171 184 0.14812698354970472 3 1336 2 1304
531 0.28948753314928327 0.052912261730167214 0.6568887749801282 133 130 127 1.3483662870082833 3 2650 2 2307 4 2404 1 2197
1303 0.1031768651420006 0.026726139159921152 0.6365367941009922 140 157 173 1.5842385486430768 6 2272 8 2660
194 -0.04718585381969546 0.18219544210154567 0.5408889191651346 190 143 150 0.45198722894800447 3 1342 2 1198 4 1228 1 1005
532 -0.09088121451537942 0.08053280713652612 0.5593475431534916 5 42 102 1.6427466207567647 3 2651 2 2252
1337 0.03223692314978979 0.23297314998939644 0.5582432000459543 160 149 148 0.8562297698524941 1 378 4 1251 8 1930
228 0.1114739554250031 0.28955957138287525 0.4739204562927568 97 107 87 0.3828102787237026 3 1496 2 1327 4 1301 1 1135 6 1688 7 1856
1338 0.004633260790984754 0.2689045672706352 0.501713149106193 95 102 110 1.028112480578896 1 1052 3 1426 8 1941
229 0.11599541118669725 0.29076067712462045 0.4735831544531849 4 32 70 0.48802907811443225 3 1497 2 1341 4 1302 1 1138 6 1690 8 1331
1339 0.05550065679658079 0.007832980673075453 0.6005054116584543 44 43 53 2.104251280924385 2 236 6 1257 7 1494 8 1969
230 0.12754444195764908 0.28554486940946816 0.4767439992182799 36 33 50 0.10361572998892288 3 1498 2 772 4 708
258 0.14565873592750578 0.3089763880636953 0.465419525304172 144 165 184 0.6786507806979897 3 1546 2 1377 4 823 1 635 1 1187 6 1357 7 1802 8 1751
1340 0.09968290880581762 0.3195873619174722 0.4571376559630773 100 77 58 0.6314652432933494 4 1954 7 2112 8 2094 9 1423
231 0.22752631742739968 0.29784627539770836 0.5254631676652931 188 181 196 0.3704697744484212 3 1503 2 1387 4 1685 1 1204 5 1161
1341 0.08728412402371613 0.2968545349685832 0.46873635619914605 0 66 122 1.0409486228104796 1 1472 2 1631 8 2112
260 0.14494209011094752 0.31321480044322086 0.463154604270481 171 158 117 0.13033191445538206 3 1548 2 1375 1 708
1342 0.2045674222259287 -0.06798462808669124 0.6055499986421625 164 166 175 0.3795859810844339 7 2186 8 2276 9 1981
233 -0.002845057752146122 0.30401036930241604 0.4882244370037888 198 167 188 0.5020384722019575 3 1510 2 709 4 890 1 495 8 1526
261 0.0984763991829717 0.318234305133724 0.4583529411030451 152 117 113 0.06872108480969216 3 1563 2 856
1343 0.20746434502020733 -0.06828065548909627 0.5978978237808271 124 63 67 0.5098428260243197 7 2321 8 2429 9 1980
234 0.0029525875669164756 0.30687241520719355 0.48610386769039776 199 165 181 0.26238666248259557 3 1512 2 1308 4 1412 1 499
262 0.0984763991829717 0.318234305133724 0.4583529411030451 152 117 113 0.06872108480969216 3 1564 2 857
1344 0.08799986301097956 0.3096640351354161 0.46159606086372856 134 116 61 1.0543879272257568 2 1838 7 2375 8 2452 9 1820
235 0.0029525875669164756 0.30687241520719355 0.48610386769039776 199 165 181 0.26238666248259557 3 1513 2 1307 4 1413 1 498
263 0.10086388979267727 0.318394012187523 0.4591517517767584 92 57 47 0.4552291956983063 3 1566 2 1352 4 1394 1 606 7 1560 8 519
1345 0.05303950562867107 -0.013537888012783226 0.5963220353489065 43 42 51 0.8541299750519865 7 2362 8 2476 9 1723
236 -0.0044310932923109165 0.30789420205399853 0.48708029945826253 203 148 173 0.4202887717444749 3 1514 2 711 4 1409 8 1529
264 0.09922032935824501 0.3223440957318632 0.4558827448827203 157 148 116 0.6552577516400084 3 1567 2 1355 4 1416 1 603 7 1899
1346 -0.01070927054730232 0.27019642008088246 0.5005543970739955 86 78 96 0.9736847419142846 1 1757 8 2568 9 2168
237 -0.0044310932923109165 0.30789420205399853 0.48708029945826253 203 148 173 0.4202887717444749 3 1515 2 712 4 1410 8 1528
265 0.11824076010102959 0.32495577649700924 0.4577607397498519 110 79 59 0.2838215702788819 3 1570 2 867 4 864 1 696 8 1296
1347 0.2165758488713982 -0.21343327888901836 0.7916602269197526 31 57 75 1.468693117678581 7 2427 8 2613 9 2388
238 0.00036943923782846514 0.3103842800441929 0.4858188712073585 118 40 69 0.5697888232783054 3 1516 2 714 4 1411 1 497 8 1949
266 0.1254851842194163 0.3152548065378339 0.46348711589530406 82 47 34 0.48316921450159106 3 1574 2 1358 1 617
1348 0.2021363399635729 -0.2093427951343082 0.8015239456019463 33 50 53 2.593334070926377 7 2486 8 2617
239 0.08413975676728572 0.3116653611663901 0.46266311307473645 169 149 123 0.30473819859452306 3 1517 2 801 8 1378 1 567
267 0.1044029455566049 0.32773648283056794 0.4541817758156972 116 83 67 0.565841665146051 3 1584 2 860 4 904 1 688 7 1009 8 1341
1349 0.24290768916512367 -0.22514278303816543 0.7986283903114751 28 44 52 0.5327680572052407 7 2423 8 2652
240 0.08998864825076028 0.29613614265968063 0.46863555303117366 0 60 117 0.2260498996462194 3 1518 2 1323
268 0.10428827827237327 0.3278622299524134 0.4541956004270905 116 83 67 0.40448950086809177 3 1585 2 861 4 905 1 689 8 1342
1350 0.20090711509716186 0.28001616732916207 0.5339301727603192 45 53 83 1.34457764848271 1 2096 4 2338 10 2146
241 0.09654391885645036 0.3027370299040294 0.4663001032410078 48 54 78 0.4157110395950577 3 1519 2 807 4 786 1 1128 8 1372
1351 0.0764794579836662 0.1376433738541027 0.597356401853471 186 206 242 0.7821510657272247 5 2128 8 2800
242 0.11619233648293988 0.3049473227716531 0.4673110217016864 126 119 101 0.1489468770321313 3 1522 2 1342 8 1335
1336 0.07534234686959451 -0.040352291098566556 0.6072098017641446 44 33 53 0.45735072921591247 3 228 6 1201 8 1915
227 0.10195741176035628 0.2897777797851093 0.4727264333237823 100 108 99 0.44481352173453875 3 1492 2 752 4 773 6 1418 8 1364
1238 0.05995115197518422 0.02527348318737681 0.5742057246535067 103 103 95 0.3949082725251413 6 646 7 1506 8 1494
129 0.15335473319935317 0.30472578515600174 0.4673343708632389 154 179 197 0.20054823937271937 3 930 2 903 1 654 8 346
283 -0.0135260871037037 0.02254520943307337 0.5931090279156424 91 83 71 0.38211478129070714 3 1683 2 1063 4 1841
1365 0.25956252494326837 0.15475014172933046 0.5997805372903534 200 215 237 0.5960928358885412 9 2415 10 2435
256 0.1584373779784464 0.3035881213106783 0.4701823332321216 56 74 103 0.3159406212212262 3 1544 2 1381 4 1373 1 1196 5 1449
1306 0.061913049519896145 -0.05157963738008479 0.6149871250424662 44 43 45 0.5107181986612096 6 2269 7 2538 8 2665 9 2419
197 -0.07317165404610415 0.19185019477522258 0.5303446239966287 213 175 186 0.200196604115965 3 1354 2 480 4 1245
1352 0.1834319588667292 0.09568137169409775 0.623661460981737 19 28 32 2.601130049071803 1 2233 7 2690 8 2812 10 2672
243 0.10948068763557463 0.3095073241891887 0.4642910209533612 95 58 47 0.3032780663714109 3 1524 2 1340 4 858 1 610 7 1522
1237 0.05995115197518422 0.02527348318737681 0.5742057246535067 103 103 95 0.3949082725251413 6 645 7 1505 8 1495
128 0.15588749936829494 0.3048130901634548 0.4679369966572316 148 172 194 0.3651890988451387 3 929 2 905 4 827 1 657 5 815 6 1322
1364 0.28142228491592464 0.16722774058414838 0.5965870455574668 0 0 0 0.39760874458763384 5 1560 7 1734
255 0.15445202905045063 0.3014997549029152 0.46945464532844694 149 174 197 0.43138047623302933 3 1543 2 1380 4 1363 1 1192 5 1208 6 1315
1305 0.4835610347583651 -0.39102995853690187 0.976521076765944 21 33 39 1.5126179064836676 6 2251 7 2522 9 2499
196 0.33600812925868123 0.1816595311696662 0.5919348497837063 106 132 150 0.6476574950928116 3 1345 2 695 4 454 1 1087 5 478 8 133 10 922
534 -0.06013329552963482 0.11416126250151128 0.5345013561858011 7 41 97 1.4382978017837786 3 2656 2 2259 4 2374
1236 0.055428783647464765 0.02411385467290663 0.5746524536589237 102 104 99 0.30611352652757784 6 648 7 1504 8 1498
127 0.1559149161558092 0.30481792736862817 0.4679736755827405 148 172 194 0.33875193963581973 3 928 2 906 4 826 1 656 5 816 6 1321 8 343
281 0.20509014958747993 -0.016083376552496996 0.6611857116425532 126 136 141 0.18260924344575868 3 1673 2 1118
1363 0.22221494191699603 -0.0039636939829825754 0.6526970546365485 69 43 58 0.33588925768291006 3 1191 2 338 4 1072 5 979 9 304 6 1150 7 1305 8 1310
254 0.14681369612970216 0.3058918002499067 0.46706097888988085 162 188 208 0.21433099417427146 3 1541 2 1374 4 1366 1 1185 6 1661 7 1799 8 1750
1304 0.25779292669557036 -0.0881014392776638 0.5968814302677221 81 89 97 1.5405548603035963 6 2256 7 2477 8 2678
195 0.3360121502837753 0.1816892672371687 0.5918372959961536 106 132 150 0.6772686373711211 3 1344 2 696 4 455 1 1088 5 479 8 134
533 0.09657243833996804 0.08360363269507819 0.6244252525228052 96 118 130 1.2133940604690052 3 2655 2 2263 4 2408 1 2145 5 2073 6 2420 8 2755 10 2491
279 0.050905571279370614 0.004254747353704721 0.5867532044027511 47 54 48 0.2327392527408894 3 1668 2 1013 5 1351 8 2354
1361 0.16295220911918756 0.17325644116486963 0.6057596767333479 196 222 251 0.857573813465258 1 2223 10 2664
252 0.14267750545794328 0.3086146592236609 0.46589715706877516 85 82 95 0.25545845517158733 3 1537 2 1373 4 818 1 634 6 1363 7 1431 8 1240
278 0.04977494554319265 0.0005069200549810531 0.5888904206195147 16 19 18 0.350675790801564 3 1667 2 1012 4 1544 5 1350 6 1869 7 2248 8 2355 9 445
1360 0.10707461657688554 0.17109961739415963 0.5833619089189993 24 35 35 0.7926457310227754 1 2235 9 2872 10 2644
251 0.14260619897309848 0.30693766164222874 0.4667439310243006 162 187 210 0.17634879263079323 3 1536 2 1370 4 1371 1 1182 6 1666 7 1430 8 1239
277 0.05237910739883968 -0.002472681197517773 0.5901705480684832 45 52 46 0.23552294757410108 3 1666 2 1010 4 1543 5 1348 6 1857 7 2091 8 2351 9 1270
1359 0.2372577254193536 0.17931264954382606 0.5830735902131905 0 0 0 0.5487825315400682 7 2679 8 2791
250 0.14260619897309848 0.30693766164222874 0.4667439310243006 162 187 210 0.17634879263079323 3 1535 2 1369 4 1370 1 1181 6 1665 7 1429 8 1238
276 -0.008119536748297422 0.0006586059332449946 0.5746641874263266 111 102 97 0.5018407545014215 3 1665 2 1429 4 1823 5 1378 4 1539 6 1885 9 489
1358 -0.1345216113802923 -0.06293085665538417 0.6749343749079236 0 0 0 1.0065293084432554 4 1994 5 1093
249 0.13903514192863473 0.30784284598958767 0.46635393525368957 161 187 208 0.23915385987228058 3 1534 2 1364 4 1369 1 1178 6 1667 7 1465 8 1287
275 0.08250045811977409 -0.030134839833911544 0.6019555607159679 36 43 58 0.34067682654057635 3 1657 2 1436 4 1515 5 1333 6 1846 7 2211 8 2462 9 1231
1357 0.1501521118524111 0.17218263673951034 0.5853366225517335 205 231 249 1.4754021213173203 7 675 9 1311 10 722
248 0.13194847423163256 0.3064766653157824 0.4675000563084635 166 187 208 0.3488545415268991 3 1531 2 876 4 1351 1 1170 6 1394 8 1288
274 0.07482852802708724 -0.04148790015595877 0.6086379007487344 17 17 24 0.3764775014896478 3 1655 2 993 6 1573 7 2218 8 2470 9 1230
1356 0.23818129485354528 -0.2687714117183621 0.8278057227330858 131 136 136 1.2510668917218577 7 2185 8 2612 9 1164
247 0.14072498014886697 0.3056769507452906 0.4674639310659289 76 94 125 0.410243743098756 3 1529 2 1365 4 1358 1 1179 7 1432 8 1236
273 0.05098595211400184 -0.025019816260007623 0.6019089221967009 133 160 171 0.32611276585770954 3 1653 2 987 4 1528 5 1019 7 2229 8 2348
1355 0.14062187436592163 0.33957265049241797 0.4513621316302233 152 181 200 0.4547375687768554 4 1766 1 1509 8 1756 6 1925 7 2078
246 0.14289131523385737 0.30192521838245945 0.4691109255793895 94 109 134 0.34199949081745357 3 1527 2 1366 4 1354 1 625 6 1352 7 1428 8 1233
272 0.27352696274832067 -0.07061938760905409 0.5936304958274372 76 90 101 0.2568413150820805 3 1638 2 1031
1354 0.12108428937048483 0.29242495269643354 0.47275549912101206 44 74 85 0.45819827835981125 3 2121 4 1939 8 1813 3 1888 7 1817
245 0.14289131523385737 0.30192521838245945 0.4691109255793895 94 109 134 0.34199949081745357 3 1526 2 1367 4 1355 1 626 6 1353 7 1427 8 1232
1353 0.1467250196478695 0.047136068358222934 0.6520965374111126 181 201 235 1.1235767014946918 3 2733 7 2696 8 2813
244 0.11141800124394002 0.31087780531607556 0.46435048378396676 152 139 102 0.31943747618821067 3 1525 2 1353 4 1391 1 612
1335 0.20017586189418798 -0.02300532222291093 0.6766042476360088 159 170 181 0.20614708770252188 6 1549 8 1838 9 1708
226 0.09259158345308312 0.28970016926249686 0.4718685783879545 103 107 93 0.17333536461103344 3 1488 2 1325 4 1340 1 532
1333 0.24127878273806727 0.20568368739286672 0.5748339842997442 179 201 213 0.3981502688130168 5 1396 8 1730 10 1759
224 0.08437767045806603 0.290194354217472 0.4723309476662484 137 133 131 0.34818728982426034 3 1484 2 744 4 1336 1 1109 8 1389 9 719
1332 0.4808977443595656 0.3318607414361853 0.5398609342386347 152 162 163 0.4779010833591042 6 1083 7 1198 8 1674
223 0.0827860113400984 0.2889204552984811 0.4722374135114254 46 37 56 0.011172868034543187 3 1483 2 743
1331 0.23887989504345106 -0.21944094839225733 0.7932561838276642 57 54 63 1.308824627518821 7 1282 8 1382 9 1998
222 0.07303453257305603 0.2923975851108847 0.4780181975843424 50 69 95 0.1893023456750855 3 1482 2 739 4 769
1330 0.0976618880514895 0.2959805104901009 0.4701755390842663 4 58 103 1.132837795136111 4 1341 7 1555 8 1371
221 0.24682636505777072 0.2856789215493053 0.5340425366042538 88 79 75 0.4090382595281993 3 1460 2 1389
