# 3D point list with one line of data per point:
#   POINT3D_ID, X, Y, Z, R, G, B, ERROR, TRACK[] as (IMAGE_ID, POINT2D_IDX)
# Number of points: 395, mean track length: 4.0841546626231997
391 1.1470556840986745 3.8400489119401788 5.3321174537781442 123 85 92 0.41354026675405597 3 2144 2 1849 1 1489 4 1759 8 2097 9 738
392 1.1487784331333342 3.8398055690398523 5.3324118116785053 123 85 92 0.52999651778958601 3 2145 2 1850 1 1490 7 2114 8 2096 9 739
393 1.5461886438609405 3.7505624325752658 5.414951435122453 172 147 106 0.33798068986505453 3 2148 2 1855 4 1956 1 1667 6 2047 7 2076 9 1354
394 1.5458406161659015 3.7503988305530882 5.4142829235350396 172 147 106 0.33323415014073626 3 2149 2 1856 4 1957 1 1668 6 2046 7 2075 8 2083 9 1353
395 1.6424740564432811 3.7595834614889023 5.4068705629761578 168 146 111 0.22732782404750793 3 2150 2 1864 4 1958 1 1502 7 2073 8 2070 9 617
396 1.6424486264788829 3.7586628111154843 5.4054223205111294 168 146 111 0.16954581754331555 3 2151 2 1865 4 1959 1 1501 7 2074
399 0.040139557763210931 -0.074392238247641851 6.7820116905229053 137 132 130 0.5285649543651787 3 2193 2 1879 4 1995
400 0.026370742175113593 0.047428585484816488 6.782542655677184 117 113 106 0.45955244481002744 3 2194 2 1884 4 1996 5 1729 6 2137
401 0.07634996300839797 -0.01867567613110771 6.7981247723196976 93 82 73 0.43868098740482225 3 2195 2 1700 4 1826 5 1568 6 2011
402 0.6201342162340534 -0.16951123575482074 7.0052111027924324 12 19 25 0.33838200266877078 3 2196 2 1702 4 1992 5 1710 6 2120 7 2446
403 0.80866068696923532 0.25451270540236864 6.7997753876545879 51 55 41 0.65653782382406123 3 2201 2 1903 4 1830
404 -0.89725045710542872 1.0822489570920495 6.5141648192763819 112 139 161 0.074668792913174797 3 2225 2 1908
405 -0.57148550157035349 1.0066847373000138 6.5483233138985435 168 148 105 0.52588513382320246 3 2226 2 1731 4 1866 5 1747 9 1846
406 -0.47454028437402096 1.0392134796423846 6.5396290250429026 172 155 123 0.40490529449039853 3 2227 2 1732 4 2020 5 1750
407 -0.47531548674449564 1.0390267444586163 6.5404191188722001 172 155 123 0.45760822338861079 3 2228 2 1733 5 1751
408 -0.43006248977320416 1.0751558305435807 6.5201779332791814 102 70 66 0.55942808827900548 3 2229 2 1510 4 2021 5 1846
409 -0.14561883130215664 1.0391003630120828 6.5228040691863836 179 152 86 0.0155378026665072 3 2230 2 1921
410 -0.10605679292447218 1.3972532476683353 6.5403194584431645 24 33 51 0.15027773415248566 3 2237 2 1768
411 -0.58281344770745735 1.6314519524386015 6.3174232414077451 21 35 66 1.2134156534232245 3 2243 2 1925 1 1844
412 -0.27239979246704321 1.4960611509653368 6.4950294348741515 22 33 56 0.063727550741002295 3 2244 2 1766
413 -0.25045540764878027 1.5359338053765816 6.5311270679544338 59 69 83 0.078640339917231197 3 2245 2 1926
414 2.5888994849860461 1.74482986175993 7.1195575561705091 24 35 55 0.77445700896261871 3 2249 2 1943 4 1597
415 2.5766809229285723 1.7445086652418262 7.0481826218501649 24 35 55 1.0436862574061359 3 2250 2 1573 4 1871
416 0.33342121736390962 1.8280766787295342 6.8412788431308842 115 131 141 0.769912199957972 3 2251 2 1786 4 2223
417 -0.98873606124342628 2.1845533843855645 6.4031304027113416 98 109 130 0.41499987031268126 3 2256 2 1546
418 1.8033573109652234 2.418187996025579 6.6835351840006973 155 185 200 1.1003696513099288 3 2268 2 2067
419 4.0314935814854795 2.5055345220868661 6.8490260314315714 116 116 114 0.45738737808686941 3 2269 2 2081 4 2036 5 1720
420 -0.34433705178619006 2.7207140979882936 6.0479449755691546 148 170 187 0.26224108371782601 3 2272 2 1795 4 2048 1 1623
421 -0.2595954043562575 2.8138050099257965 6.0141863070490498 147 145 161 0.45298582633521683 3 2274 2 1950 4 2051 1 1625 9 1521
422 3.4918821077083657 2.9504157585707644 6.6138715460499258 119 119 117 0.35768633165225877 3 2277 2 1980 4 1895
423 -0.27463279177702749 2.9739557325781867 5.9412391046883117 172 184 205 0.51772934675385462 3 2279 2 1949 4 2054 9 2166
424 -0.16984455539483301 2.9210798233180322 5.9529184260125385 154 174 198 0.46844888844946403 3 2280 2 1801 9 1488
425 -0.23816753466431265 3.027819673381142 5.9163497208020734 155 67 87 0.18865422106229376 3 2281 2 1807 4 2056 1 1750 9 1895
426 -0.23816753466431265 3.027819673381142 5.9163497208020734 155 67 87 0.18865422106229376 3 2282 2 1808 4 2057 1 1751 9 1896
427 1.2621762016142766 3.3379449994084216 5.60233733483292 152 151 134 0.053270249870677189 3 2287 2 1971
428 1.3075420336555252 3.3690945009735191 5.5777627719332594 31 31 69 0.026914489352541891 3 2288 2 1972
429 2.6733083385872702 3.4843517145547107 6.1774214031238603 165 171 189 1.0197077565160095 3 2289 2 1990 5 1620 6 1866 7 1772 8 1716 9 1312
430 -0.026332802560835589 3.6940147068497522 5.6856059592107897 151 34 46 0.87801000415323527 3 2292 2 1969 4 2074 1 1642
431 1.0835415983913812 3.52319057193596 5.4853498918051482 0 43 98 0.48753456280491153 3 2293 2 1841 4 2066 1 1649 7 2252 8 2289 9 722
432 1.1574106442639911 3.5414726288925418 5.4828106668259826 32 55 104 0.42043104719133634 3 2294 2 1842 4 2067 1 1651 7 2251 8 2288 10 379
433 1.3279606487936366 3.5262811917435561 5.5120950118149521 148 142 77 1.1008883183547196 3 2295 2 1976 4 2068 6 2043 8 2093 9 1351
434 1.4525539333770143 3.6761264887193357 5.4539391353947781 148 135 89 0.40187528283321683 3 2296 2 1986 4 2071 1 1787 6 2160 7 2224 8 2271 9 1775
435 1.5036372139142586 3.5923706447438302 5.5000383595372799 87 51 61 0.3609089445297749 3 2297 2 1853 4 1941 1 1659 6 2044 7 2072 9 1352
436 -0.10156124920011073 3.7796141452050454 5.8389716195939956 164 151 149 1.3592443838509798 3 2302 2 1825 4 2254
437 1.2263222005725334 3.746237356258749 5.3948604584398749 149 140 94 0.48270150502391163 3 2305 2 2086 4 2070 1 1784 7 2368 9 1425
438 1.3014053935635568 3.8345635292587184 5.3564680315482835 156 146 124 0.47837934229271478 3 2307 2 1985 4 1964 7 2243 8 2279 9 1424
439 1.30133815450418 3.8338354625310678 5.3559686525654788 156 146 124 0.46755749635279942 3 2308 2 1984 4 1963 7 2244 8 2278
440 1.5108690279867698 3.7950578220222608 5.3994291156690997 153 140 98 0.30243881845755322 3 2310 2 1993 4 2072 1 1666 6 2048 7 2225 8 2272 9 1355
441 1.2755241010461353 3.8808492503568961 5.3308462498190439 154 147 118 0.34652371654689551 3 2315 2 1992 4 2076 1 1663 9 1426
442 0.90348601933064987 -0.58234962656488376 7.1872894849506856 31 31 31 0.39826231576680488 3 2328 2 2010 4 2097 5 1815 6 2205
443 -2.5337412184771191 -0.38159774224459075 7.8103445944908874 151 154 155 0.95382928078406726 3 2341 2 1877
444 1.3034753100921614 -0.32403558881022732 7.8525516063684577 140 138 130 1.4286951809283184 3 2345 2 2119
445 1.3554097682190984 -0.21535607856386085 7.8713355847935507 92 88 81 1.0069852752098578 3 2346 2 2018
446 2.7153677343431055 0.17241052595767703 7.8942469922656215 130 130 126 0.90359351399185961 3 2354 2 2037 4 2110 1 1943 7 2430
447 -0.69313990258945879 1.0248348327385934 6.5410763435895936 178 159 132 0.92196551350035882 3 2365 2 2024 4 2018
448 4.1943685973687002 1.1462267239887378 7.5322737747426807 133 118 100 0.45029776146548006 3 2366 2 2060 5 1813 4 2115 6 2094 7 2312 8 2398
449 -0.28548189771190213 1.611584209539507 6.5645346435372911 28 33 51 0.46240956449933784 3 2373 2 1930
450 3.9109557059758431 1.8813272266627681 7.0680279292631063 159 29 35 0.73899766549104118 3 2376 2 2069 4 2122 1 1973 5 1706 6 1984 7 2176 8 2400 9 1699
451 3.901511229202598 1.8819618012674875 7.0268593295393229 159 29 35 0.5444654719473917 3 2377 2 2070 1 1974
452 3.7915342194664139 1.9586826018829766 7.0233238881704692 34 39 55 0.75523948060078616 3 2379 2 1957 1 1886
453 3.8728613181459326 1.9557981366224537 7.0241383112389268 151 171 186 0.74749996297172017 3 2380 2 2071 1 1979 10 2290
454 4.2300520276117295 1.993466797412744 7.0492670493682974 150 170 183 0.80597889050973559 3 2382 2 2076 4 2123 1 1892 5 1707 6 1983 7 2177 8 2393 9 1700
455 -0.59657487046054081 2.123488338591188 6.7880712306195212 138 134 135 0.47291444319361764 3 2387 2 2050 1 1853
456 -0.35763926815359431 2.7885487668217177 6.0129894569964168 65 67 93 0.50011198000134638 3 2394 2 2061 4 2141 1 1868 9 2160
457 -0.42253116832872784 2.9245251799517371 5.9501563996117399 157 54 76 0.40254199676702368 3 2400 2 1947 4 2146 1 1872 9 2164
458 -0.14931412773981956 2.9487644608004673 5.9526093462896634 97 108 129 0.2224336899309042 3 2402 2 2062 4 2148 9 2148 10 397
459 -0.22457901678855241 3.0782908971397709 5.8997363051381075 168 189 208 0.29214608735186448 3 2403 2 1955 4 2149 1 1882
460 2.6213701422915103 3.4661077581203803 6.2052605518545771 167 29 45 0.74538087030263056 3 2406 2 1988 4 2144 1 1792 5 1849 6 2125 7 2200 8 2240
461 -1.7602952562596559 3.3214619366700915 6.1377286157381272 150 139 134 1.2614216532593681 3 2407 2 1799 1 1867
462 0.94480598705018293 3.4239763797373111 5.5810022187912232 30 40 84 0.38892606309765876 3 2409 2 2079 4 2154
463 1.5601839339917136 3.3613406459231125 5.5939105821428425 24 32 73 0.57661446737521538 3 2410 2 2083 4 2150 1 1781 7 2354
464 2.291853526963282 3.5892031950268817 6.197823169280273 85 70 69 0.44546081345554484 3 2412 2 1987
465 2.8344692372447864 3.5616975576370735 6.2992843349187062 129 123 127 0.36569109623279711 3 2413 2 2160 4 2145
466 -0.09571005718743808 3.580259974248027 5.7312037721208036 149 28 34 0.49446282586141549 3 2415 2 1960 4 2168 1 1770 8 2564
467 -0.095279762604211671 3.5764506068462847 5.7205045958841136 149 28 34 0.33893681136080767 3 2416 2 1961 4 2167 9 2174
468 -0.059482016046765229 3.6511424169916191 5.7018902268611082 152 32 42 0.57802792128024794 3 2418 2 1962 4 2253 1 1772
469 0.99772849477094694 3.6088145168768659 5.4543134235851207 177 150 89 0.64923795109339044 3 2420 2 1975 1 1778 8 2451 9 2101
470 1.3533237846308759 3.6274471672194077 5.4638134337876254 153 140 86 0.4836889724110055 3 2421 2 2088 4 2160 1 1786 6 2164 8 2437 7 2239 9 2083
471 1.3534473020167894 3.6283058886000004 5.4645195990098889 153 140 86 0.29275160917485898 3 2422 2 2089 8 2438
472 1.1976361557977659 3.8073633192889735 5.3465468938983669 155 149 119 0.43959593083468929 3 2425 2 2087 4 2172 9 1819
473 1.5897898340971972 3.7828361302988496 5.397793403211093 133 66 65 0.43614397057199827 3 2429 2 2094 4 2163 1 1907 6 2161 7 2356 8 2435 9 2084
474 2.5714951932511121 -0.40641201137040994 6.9874519178711836 39 45 54 0.55273448656580615 3 2452 2 2019 4 2269 1 1922
475 2.696029324991652 -0.42019359814821888 6.8833717579552633 69 18 20 1.098155342334622 3 2455 2 2120 4 2267
476 1.9268513920809709 0.043680639948716127 7.8419865383205121 164 186 200 1.1726974796961664 3 2459 2 2183 4 2281 1 2071 5 1897 6 2107 5 1818 7 2490 8 2616
477 -0.20632417501562217 1.5759478936411058 6.6750747121291747 27 36 48 0.16612535409123619 3 2476 2 2129
478 0.53681689688169476 1.5631598550481225 6.526584096241911 32 35 38 1.7859403779576377 3 2479 2 2130 4 2212 1 2036
479 4.1553977784529881 1.9499160651048091 7.0953271385432277 156 38 53 0.26711815431669861 3 2481 2 2145
480 -0.54471782756486586 2.7699684473639326 6.0017440354282661 153 144 167 0.4990116460622106 3 2489 2 2142 4 2227 1 1961 9 2472
481 1.0669012579499166 3.4149693652722735 5.5822051604421548 60 64 56 0.44151949912232175 3 2497 2 2146 4 2242
482 1.8622312642603869 3.5029546034426478 5.55727668753687 134 161 183 0.75559462275881206 3 2498 2 2156 4 2151 1 1989 5 1767 7 2345 8 2428
483 2.3955582639979598 3.4763942042706342 6.1556486629509504 170 27 43 0.88265330501534811 3 2500 2 2158 4 2231 1 1901 5 1963 1 1991 6 2215
484 2.3966578663663065 3.4777344307818474 6.1610386079771322 170 27 43 0.68542414056937817 3 2501 2 2159 4 2230 1 1992 6 2216
485 -0.16412274935494589 3.5079720820357512 5.7594569444866739 153 27 34 0.97748617707119267 3 2502 2 2078
486 1.2184032692045492 3.562603637257244 5.4818751713413896 155 145 77 0.23699199752272285 3 2504 2 2149 4 2243 1 1898 2 2082 7 2455 8 2536 9 2296
487 1.2223704303203546 3.7145512469136412 5.3987561010076996 140 128 83 0.76251050131810127 3 2505 2 2153 4 2248 1 1985 8 2537
488 1.6914729408290934 3.7226884822343878 5.4217377988632061 110 67 60 0.35978696365296192 3 2508 2 2091 1 1909 6 2229 7 2441 8 2529 9 2082
489 1.3634679055307433 3.8670983572833406 5.3617235158252221 114 65 53 0.18733622678584255 3 2510 2 2161
490 1.2588135183603835 -0.061169844471865464 7.8107591212738452 98 96 84 0.5015099426673103 3 2523 2 2217 4 2193
491 1.5622640611458602 0.10412478002381864 7.7971766540650282 159 181 194 0.55170402422652121 3 2524 2 2182 4 2280 5 1947 6 2324 7 2536 8 2693
492 2.5806413095603724 0.018896780235508337 7.8621854677304093 115 126 124 0.53970057944009797 3 2525 2 2126 1 1937
493 2.8215320624299394 0.11329930407815375 7.8882591103914717 72 72 68 0.98683142490434794 3 2526 2 2189 4 2279 6 2264 7 2485
494 1.0875072120782789 0.55355600196228427 7.5228896730244186 94 112 120 0.25279095469459045 3 2533 1 2117
495 0.92448706709206829 1.2855147433102789 7.1893167058017724 127 150 167 0.62833095156748064 3 2536 2 2193 4 2286 1 2077 5 1954 6 2333 7 2547 8 2664
496 0.31236054747651065 1.9280729225558288 6.9208400550931408 86 79 73 0.51226032202752925 3 2539 2 2135 4 2291 5 2005
497 0.31236054747651065 1.9280729225558288 6.9208400550931408 86 79 73 0.51226032202752925 3 2540 2 2136 4 2290 5 2004
498 0.26745183265184935 2.0334209036280928 6.8507543359850924 146 143 138 1.336498238720834 3 2541 2 2138 4 2294 1 2043 5 2006 9 2570
499 1.2648651456139355 3.626397307822713 5.4563881263830503 134 91 82 0.34084982091454785 3 2548 2 2151 4 2246 1 1987 10 1646
500 1.3008928110412219 3.7709049895055569 5.394525313281715 140 91 79 0.50179973555734514 3 2549 2 2207 4 2302 1 1988 8 2609 9 2300
501 0.17055070148150775 4.052640487765105 5.9166051614390556 163 157 161 0.38531458191815793 3 2552 2 2148 4 2306 1 1980
502 2.471383299141602 -0.43831075476981207 7.3564903119297016 88 27 25 2.0084674994237592 3 2560 2 2175 4 2357
503 1.3931316613067826 0.075580494976788259 7.7857981069368201 54 51 44 1.7430680844686026 3 2563 2 2181 4 2316 1 2107 5 1988 6 2327 7 2537 8 2696
505 -0.61826408156535062 0.70899209043929301 6.7589368672262307 160 177 188 1.1606881278682584 3 2569 2 2172 5 2045
1235 0.74171492743531642 0.30495431036178106 6.7394397520951408 99 99 91 0.39650584351097723 6 647 7 1497 8 1491
126 1.7958466648121192 3.5267245707087649 5.5208022798308258 96 114 139 0.47710302078891037 3 925 2 898 4 1362 1 649 5 1207 6 1316
1239 0.77347859296102117 0.36933390181060011 6.669677504380437 48 39 32 0.9165809990643673 1 103 7 1507 8 1447 6 653
130 1.8007712655609049 3.5803155386247094 5.4890655753525603 154 179 197 0.3194650145464521 3 931 2 904 1 655 6 1323 8 347
1240 0.7927080654319324 0.39740541738024404 6.6893760780889666 99 97 87 0.12084757637808234 6 589 7 1508 8 1446
131 1.785517659896267 3.6721014535241978 5.4415359232271392 134 121 102 0.45578938060042634 3 933 2 896 4 1372
1241 0.7927080654319324 0.39740541738024404 6.6893760780889666 99 97 87 0.12084757637808234 6 588 7 1509 8 1445
132 2.3785468666283647 3.7103212623512332 6.0861613807369039 176 128 140 0.057395506621632342 3 939 2 943
1242 1.368310210674176 3.9301702461974557 5.3119834284401266 120 89 55 0.36209710925757799 1 1212 7 1525 8 1298
133 1.1831631956121016 3.7107340711794516 5.3761287763056442 168 148 123 0.15607968135028119 3 959 2 855
1243 0.5767137259107662 0.20839621712699258 6.8080776460577166 40 34 36 0.31945593093379487 6 631 7 1537 8 923
134 1.2531839644418445 3.7658395360770687 5.3714462725041034 96 64 34 0.35446699829893202 3 962 2 859 4 860 1 607
1244 0.53105427891664103 0.20095924965150153 6.8207596171752582 56 46 50 0.10669743071830125 6 636 7 1539 8 927
135 1.2629868788731562 3.8419802144144231 5.3333282918235012 126 117 82 0.21015519637272645 3 964 2 863
1245 0.60181520387725496 0.33807433095547024 6.7298417073111398 46 39 32 0.21830577876311011 6 656 7 1541 8 1511
136 1.5188890667272652 3.7618503535550096 5.4108864655694262 113 77 51 0.2526816725622949 3 969 2 873 4 863 1 697 6 866 7 792
1246 0.58465149668874195 0.35032735791037839 6.726357018411897 95 92 84 0.20903984911691095 6 657 7 1542 8 1575
137 1.6817139249050332 3.6912392216486078 5.4328320229166698 94 66 41 0.14218753335330364 3 971 2 895
1247 0.44532525005596946 0.26284630355543559 6.7466465899282539 102 103 98 0.7755770607949305 1 19 7 1543 8 1574
138 1.6297941645028411 3.7699561285411782 5.3985165737232954 183 145 114 0.28251924209326823 3 975 2 938 4 867 1 705 6 861 7 788 8 368
1248 0.4478517857228741 0.28484089247924654 6.7348771673432033 48 42 45 0.8551837410530686 1 20 7 1544 8 1972
139 1.6961288025592527 3.7611922405832838 5.4002600687100015 179 146 125 0.16202232471461528 3 978 2 939 4 870 1 709 8 365
1249 0.46759249558433891 0.31707398574284806 6.7555724599360127 97 102 98 0.082317800447555281 4 222 7 1545 8 1583
1250 0.39185958567647916 0.19057160933834061 6.8284699442432339 55 49 53 0.13223884597582258 6 684 7 1567
1251 0.44773593486367413 0.41612072379812265 6.7089092189246147 88 93 98 0.17924411597018083 6 696 7 1569 8 1585
142 2.6119170289318419 -0.93385454211284302 6.9993639503274103 19 34 47 0.018101190670169076 3 1080 2 994
1252 1.0167137344062791 3.458096491905613 5.5148435929158373 71 133 176 0.17051816098782524 1 568 7 1577 8 1376
143 2.9043982984989714 -0.75313145667164649 6.8915586686114443 7 23 36 1.1668843734264318 3 1089 2 1029
1253 5.7214760067609332 3.8582563160753343 6.3558755861983975 170 171 169 0.47950080581378146 6 1522 7 1668 8 1673
144 6.131902507634643 -1.5283840694218922 8.908416923447712 104 99 95 1.0205887595742198 3 1094 2 1750 7 1639 5 922
1254 2.4017193151979277 -0.68049222799011932 7.1462348566265694 182 173 185 0.13841226315485169 6 1099 7 1730 8 1793
145 -1.1536701965447937 -0.95261762068456801 8.1633339922807995 72 69 69 1.1297424217649552 3 1107 2 974 4 1046 5 1064 6 1706
1255 2.4317706708594957 -0.60544585591648814 7.8835615997507702 126 116 116 0.49870591774368139 6 371 7 1738 8 2100
146 -1.0253608711779283 -0.86231691716882142 8.1841300014758449 136 129 119 0.69451193088831065 3 1108 2 101 5 1066
1256 2.6340211663468098 -0.090908394036686935 7.7179892140438735 149 160 172 1.7052395879097437 2 1494 6 1539 7 1741 8 1799
147 0.76697769909799518 -0.54892287596611267 7.1786359609655914 49 54 44 0.338203558011056 3 1111 2 990 4 1026 5 1000 6 1572 7 2062 8 2345
1257 2.5489533101086788 -0.050466103639559279 7.7343938411951392 148 151 159 0.23451262289619998 6 1542 7 1742 8 1803 9 1693
148 0.76772028687129035 -0.5495367604355772 7.1772430632235107 49 54 44 0.25593457035695699 3 1112 2 991
1258 2.3668135324037451 -0.3412608862858042 7.7469981560354482 115 76 90 0.3743096035996758 6 1128 7 1747 8 1833
149 2.6067914707324049 -0.40806242024441053 7.1869661673902367 110 116 126 2.5167563452898185 3 1136 2 264 5 965
1259 2.4594257207059695 -0.067200433131347603 7.8731596734391385 154 159 165 0.24654143325297576 6 1554 7 1761 9 1243
150 2.8104745184511981 -0.33205084094048309 6.9416736277719169 116 115 120 1.1183220761898771 3 1140 2 1088 4 47 1 914 5 281
1260 2.5628951827422757 1.733635955303594 7.0432216712087961 47 63 91 0.10442765336642947 5 1060 7 1771
151 2.6648335546760817 -0.32900144145599453 6.9991710933585836 103 113 114 0.43366638339903624 3 1141 2 1083 4 1496 5 967 6 1079 7 1293 8 1216
1261 1.9905378286029398 3.7435898537522103 5.5350796743981512 174 174 169 0.98366408769381231 6 1324 7 1787 8 2049
152 2.712531608093522 -0.31598258519103573 7.0025131194359895 108 120 122 0.90039332592215038 3 1142 2 1084 4 1013 1 911 5 282 6 291
1262 2.1523103878931584 2.4683522084450864 8.719384428196701 193 208 226 0.238252652743458 5 1610 7 1792
153 2.8042043475148986 -0.30017339347514338 6.9884526896008365 111 115 116 0.4018177362650886 3 1143 2 1085 4 1012 5 283 6 292
1263 1.5343812696710248 1.7601161320032694 6.9861184210610245 193 208 226 0.96172040923855173 6 2009 7 1793 8 2116
154 0.52922647237884846 -0.14813864517007536 7.0018037862249409 11 26 46 0.20756775001713726 3 1157 2 1005 4 1529 5 1346 6 1855 7 2103 8 2366
1264 1.8166849040382052 2.4521111263237869 6.7285518553549259 184 205 224 1.9525266817117828 5 1425 7 1795 8 2540
155 0.77025042011748057 -0.19664809132661987 7.0200628344459535 11 15 10 0.39075417157089554 3 1160 2 1015 5 1005
1265 1.835869307813959 3.9342728554527668 5.3276642588762551 56 39 34 0.34520222030957232 1 1236 7 1805 8 1736
156 0.77131386393397816 -0.017386773702517455 6.9094335018691195 44 51 43 0.48619078242780445 3 1161 2 1014 4 193 5 467 6 1595 7 2092
1266 1.424850538564284 3.4365135321270124 5.5543036880491243 108 140 144 0.27359388474676472 3 1887 7 1816 8 1812
157 2.4409680635876754 -0.18530263406277847 7.6704522355583284 66 47 62 0.14715770692997804 3 1164 2 327
1267 1.6683415249828024 3.9586642304477331 5.2958715777133758 42 50 88 0.080093582494125626 6 1702 7 1825 8 1755
158 0.5195528963753121 0.27493297705760827 6.7754761890226698 23 23 21 0.22732610971067757 3 1178 2 1073 4 1099 5 1048 6 1606 7 2107 8 2193
1268 1.5817011959204041 3.9809301500573731 5.2919231601685297 164 188 202 0.13728256435832542 1 1232 6 1704 7 1827
159 1.704139557128669 0.10361756236573799 7.7378927287906745 140 26 45 0.52958048352360687 3 1184 2 1116
1269 1.5044367580100984 3.9915458325422235 5.2906214074746485 156 184 196 0.7003928080060563 4 1425 6 1722 7 1828 8 1778
160 2.4521467084721333 -0.070599718487028507 7.8563186666293117 122 134 132 0.40263468558536747 3 1186 2 332 4 1533 5 1325 6 1553 7 1760 8 1841
1270 0.6469149495296137 -0.027694791830573551 6.9312526579369198 43 43 47 0.44126583360269306 6 1229 7 1841 8 2189 2 171
161 2.4796402801110897 -0.076470358700942098 7.8107163421711778 44 50 57 0.56937041902932162 3 1187 2 333 4 1063 1 908 5 977 6 1552 7 1759 8 1807
1271 0.78397725083457759 0.028552246423757199 6.8752779172688934 82 83 73 0.28681236419519163 6 1230 7 1842 8 2158
162 2.5362899275289568 -0.067591853615195041 7.7635876426119168 115 127 131 0.5635001155861793 3 1189 2 336 4 1065 1 180 6 1146 7 1342 8 490
1272 5.5354469976231657 -4.8123078032342868 12.297240449052632 19 19 15 1.4483086324896668 6 1965 7 1985 9 1639
163 2.5095362043714271 -0.0028780884305674714 7.9514641278618043 68 67 69 0.6104326855975124 3 1190 2 403 4 1535 1 178
1273 2.6463193113147097 -0.63368474445413425 6.9384844522238618 214 238 250 0.17660619369142935 6 1518 7 2008 8 2065
1274 2.4194728640505025 -0.18553707569445321 7.7690172201733727 161 166 177 0.35804123773936786 6 1825 7 2027 8 2107
165 2.6350157128035683 0.0079475698892048641 7.7729636658780858 41 46 53 0.43159065153109372 3 1194 2 406 4 1076 1 947 5 984 6 1153 7 1309 8 484 9 310
1275 1.9051701601658753 3.9663972968254466 5.3224472396515621 116 139 158 0.5729416991616727 6 2040 7 2057 8 2053 1 1672
166 2.6350157128035683 0.0079475698892048641 7.7729636658780858 41 46 53 0.43159065153109372 3 1195 2 405 4 1075 1 946 5 983 6 1152 7 1308 8 485 9 309
1276 1.7714034550737523 3.9567029833002816 5.3007305142947745 148 174 195 0.18278629597108828 6 1923 7 2058 8 2055
167 2.7015398390640817 -0.030647809743604371 7.6376827141044537 132 123 131 0.26342599150500584 3 1197 2 343 5 348
1277 0.83959826464083609 -0.22103257104437957 7.0209469742017818 77 74 70 0.44382771638386881 6 1581 7 2067 8 2323 9 437
168 2.7370895757600269 -0.028479594842675038 7.6305774559973134 53 38 50 0.39447218585688787 3 1198 2 1159 4 1079 2 1158 5 986 6 1141
506 -0.55322729995631836 0.87781657196283547 6.6390959245365009 100 66 51 0.14563260994726837 3 2571 2 2179
1279 1.4990910269490523 3.9019850502368141 5.3406390295936026 149 115 88 0.41399447822910845 6 1938 7 2079 8 1776
170 -0.63432356797670653 0.54013459283344445 6.8303372406677632 117 196 237 0.35637939549474601 3 1203 2 218 4 1129
508 0.13223161771960457 1.8748315949924481 7.0268967301946708 134 130 131 0.83887474379031968 3 2578 2 2195 4 2331
1280 0.60566336792247566 -0.076568019664980724 6.9619181124739589 44 41 38 0.47459772063385153 2 1009 6 1590 7 2089 8 2353 9 442
171 -0.56207960470132989 0.46759326876879781 6.897200446087445 32 55 86 0.68696580963097642 3 1207 2 1050 4 1570 5 1599
509 0.65205165710637802 1.8727144338122848 6.8487266421014557 117 139 153 1.4545124140215897 3 2579 2 2229 4 2332 1 2082 5 2001 6 2286 10 2263
1281 0.79100123488871754 0.46466017369024692 6.6577039216883751 107 106 92 0.14883093755056642 6 1613 7 2094 8 2139
172 -0.37576966407411733 0.55994617154002047 6.8073449573518872 172 175 163 0.6020979204266097 3 1217 2 1059
510 1.3377759644367386 3.562566076165977 5.499809277970491 141 145 147 0.90367969683005389 3 2584 2 2205 4 2345 7 2540 8 2649 9 2433
1282 0.79100123488871754 0.46466017369024692 6.6577039216883751 107 106 92 0.14883093755056642 6 1614 7 2095 8 2140
173 -0.4818381725922925 0.3069930258181639 7.4339561702751622 121 107 95 0.36359808422926609 3 1220 2 225
511 0.35868046946400012 3.9160895131822033 5.9807618932329945 157 151 155 0.23914747696139751 3 2589 2 2204 1 1981
1283 0.69771590904870118 0.43660184516755229 6.6783749546787021 101 98 86 0.55210060002237016 6 1610 7 2097 8 2327
174 -0.97797675914333282 0.94803902525923534 6.589873985657503 34 35 68 0.12223576154573423 3 1259 2 1098
512 1.0488027534126334 3.7274429308984156 5.3992144442047065 173 177 175 0.63914471207635104 3 2590 2 2206 4 2348 1 2060
1284 1.3543379662450592 3.9741420911358514 5.2898924891927432 171 150 57 0.60660415666204204 1 1497 7 2101 8 2089
175 -0.93922859652977497 1.0991320745579114 6.5351123773127142 21 42 102 0.0028821540716659172 3 1260 2 283
513 1.3645994138665234 3.6970727304931077 5.4359923665807379 148 128 81 0.47265354350436245 3 2591 2 2208 4 2300 1 2061 7 2541 8 2606
1285 3.0057455403960263 -0.97777587534851129 7.0825168178106948 209 229 244 0.54185017833745031 6 1970 7 2173 8 2409
176 -0.87715324300606634 1.1128676587600523 6.4659311755958768 152 177 207 0.3561292482110458 3 1261 2 284 4 1175
514 1.2549393862882541 3.8865880805121589 5.2752664559059905 138 146 148 0.029999479302387479 3 2592 2 2211
1286 2.4386822603149132 -0.50584305021534037 7.1447975881625405 117 43 54 0.63981643387115616 5 1528 7 2187 9 1664
177 -0.40530461429831266 0.99230327479740732 6.5579091731138996 87 105 134 0.68426965581009713 3 1263 2 1103 4 349 5 1138
1287 2.3619351203000045 -0.50773741779885617 7.768436567869383 125 115 113 0.56384848953258049 6 1533 7 2193 8 2281 9 1686
178 -0.32599284648732291 1.0550319052834536 6.518250273295485 84 105 138 0.33123476858956297 3 1265 2 1132 4 1161
1288 1.55182173961115 -0.071005037453783726 7.8763603834721323 149 117 100 1.133071599659585 1 1541 3 1694 7 2209 8 2459
179 -0.4887926712892332 1.0729374220980663 6.5275460755147918 166 134 112 0.1268815317716174 3 1267 2 368
1289 1.9473014176984642 3.9477130710943573 5.3412475452177697 50 39 60 1.0821983847334153 6 2039 7 2210 8 2414 4 2165
180 -0.49257174557059635 1.1411282553531032 6.4566130027415163 123 77 72 0.38996200627919819 3 1268 2 1127 4 1180
518 0.76401157724404889 -0.53380697681870881 7.1783967575589704 40 42 35 0.8256034121430339 3 2604 2 2247 4 2397 5 2068 6 2445 7 2645
1290 1.8018567186893395 3.9417397575593385 5.3283090354395419 49 37 33 0.44838099235524931 1 1670 7 2216 8 2054
181 -0.29217446680595793 1.1104811000968509 6.5017007565407283 173 198 215 0.27594393101148129 3 1269 2 376 4 364 5 1143
519 1.7454550096692598 -0.0050645006658818215 7.8381359534445103 177 19 19 0.71164018009182151 3 2605 2 2256 4 2363 5 2027 6 2415 7 2615 8 2753
1291 1.7261840701244546 3.9702477013916684 5.307928557207811 125 148 168 0.48158522549852589 6 2049 7 2217 8 2071 9 1778
182 -0.29295895180701781 1.1106363813099607 6.5029116035165906 173 198 215 0.27067678161085257 3 1270 2 377 5 1144
520 2.5676352416896506 -0.056548901709447041 7.9073747921275874 103 115 121 0.58166195617795846 3 2606 2 2262 4 2401 5 2065
1292 1.0842376505672475 3.5249002637145561 5.4870310517845269 14 42 87 0.52851938384880914 1 1650 7 2253 8 2290 9 723
183 -0.26706047449810083 1.1118319658674247 6.5105444237001873 84 105 134 0.40213003104993822 3 1271 2 378 4 365 5 689
521 4.9367723274891748 0.84388818097241003 6.9835645561148176 147 34 0 1.5705128481072554 3 2612 2 2288 4 2314 5 1940 6 2179 7 2294
1293 1.0084021090532529 3.5558901266363416 5.4633379224564305 15 81 124 0.7091072408179645 2 1638 3 1901 7 2261
184 -0.201642141331805 1.1713702255867517 6.4432115804922674 78 99 134 0.7430257457828594 3 1275 2 1135 5 1149
522 4.0429107572235274 1.895772965395244 7.0888309253716546 161 31 40 1.5470066295892453 3 2622 2 2292 4 2371 1 2159 6 2362 7 2562 8 2675 9 2530 10 2616
1294 2.6486662332510273 -0.75063700151814738 6.92767984156262 44 50 63 0.085760903987346274 6 1973 7 2316 8 2419
185 -0.72604771410344671 1.2282704864492722 6.4130823095655636 164 194 213 0.35851309655934377 3 1287 2 1126 4 1177
523 1.636427034184134 1.9992624667851 6.8961193005849077 20 30 33 1.1220218094652776 3 2623 2 2268 1 2154 5 2044 6 2421 7 2618 8 2724
1295 3.5373440163571437 2.9007232457692469 6.6895760476217605 121 105 95 0.29681460226256662 6 2203 7 2326 8 2402
186 -0.34026585776897184 1.4367596999678445 6.3703504163230038 10 27 61 1.5843248108768007 3 1297 2 1175 5 1440
524 1.636427034184134 1.9992624667851 6.8961193005849077 20 30 33 1.1220218094652776 3 2624 2 2267 1 2155 5 2043 6 2422 7 2617 8 2723
1296 0.81884147259145179 -0.55325919810347046 7.1839700638603237 74 70 56 0.21228108914683252 2 1695 7 2349 8 2565
187 -0.47515879890415735 1.6438284257714468 6.4195855964854029 39 51 66 0.038058255542232092 3 1314 2 1170
1297 1.4885580895297741 3.7068109865289709 5.4311068882753721 99 58 48 0.74130243983509203 1 1788 7 2359 8 2436
188 -0.47515879890415735 1.6438284257714468 6.4195855964854029 39 51 66 0.038058255542232092 3 1315 2 1171
1298 1.1904710014960709 3.8803793096869681 5.3133456171033639 138 158 162 0.77698156871633028 2 2093 7 2371 8 2444
189 3.3019484575951976 1.9656241025095285 6.9855629222640703 153 178 195 0.51978890566198055 3 1328 2 1598 4 1616
527 2.54390199021105 -0.31539334661297003 7.2679842536038022 82 33 32 0.76045535014808541 3 2644 2 2250
1299 2.9270600299151077 -0.76959046521239061 7.0136182209250872 55 67 76 0.1845292605599014 6 2083 7 2415 8 2517
190 3.8789724492691344 1.8843648072002031 7.0705526498363698 98 38 62 0.17531277110002394 3 1329 2 1600 10 1455
528 2.8711500719919503 -0.13512871270586535 7.7185327356141329 106 120 129 1.9584020506299231 3 2646 2 2283 4 2398 5 2026 6 2361 9 2626
1300 4.1827416257873722 2.4323478753637504 6.9161155695593033 153 151 143 0.95226394440908224 6 2265 7 2416 8 2585 9 2407
191 3.8808118495801129 1.8853027175502577 7.0759813061481482 98 38 62 0.0022039543141305303 3 1330 2 1601
529 3.8959473784172185 -0.2527545635886832 8.0771261348660435 131 130 125 0.62072822637554292 3 2647 2 2303
1301 2.8135796714099612 -2.6285976628657819 9.2955062588772055 39 42 49 1.2075737799468651 6 2180 7 2424 8 2653
192 4.023593775690169 2.011820797035603 6.978569745417138 158 173 189 0.25600065325761551 3 1334 2 1616 4 1168 1 1460
530 -0.51216408660441681 0.5610352499395822 6.8509528347956801 84 153 192 1.6506084394499425 3 2648 2 2280 4 2407 5 2079
1302 2.4884164597565546 -0.26488300591017711 7.3988840342091944 92 88 81 1.3647200971190336 6 2195 7 2429 9 2401
193 4.2326895395572981 1.960820301217737 7.0593701260906627 171 171 184 0.14812698354970472 3 1336 2 1304
531 3.3998420130348772 0.62141995711487996 7.7147296492273245 133 130 127 1.3483662870082833 3 2650 2 2307 4 2404 1 2197
1303 1.2117448964619633 0.31388104963836011 7.4757089256451206 140 157 173 1.5842385486430768 6 2272 8 2660
194 -0.554167036113417 2.1397664759569013 6.3523871019839229 190 143 150 0.45198722894800447 3 1342 2 1198 4 1228 1 1005
532 -1.067340510120296 0.94580522398249056 6.569171585432013 5 42 102 1.6427466207567647 3 2651 2 2252
1337 0.37860160851594626 2.7361174922671694 6.5562017968785478 160 149 148 0.8562297698524941 1 378 4 1251 8 1930
228 1.3091888030206218 3.4006880550403706 5.5658862425342521 97 107 87 0.3828102787237026 3 1496 2 1327 4 1301 1 1135 6 1688 7 1856
1338 0.054414622015567016 3.1581085214893045 5.8922932682688138 95 102 110 1.0281124805788959 1 1052 3 1426 8 1941
229 1.3622903479868405 3.4147942575371011 5.5619248527197236 4 32 70 0.48802907811443225 3 1497 2 1341 4 1302 1 1138 6 1690 8 1331
1339 0.65181896669359995 0.091993242299242939 7.0525438708905996 44 43 53 2.1042512809243852 2 236 6 1257 7 1494 8 1969
230 1.497926171739798 3.3535380023575669 5.5990469101435565 36 33 50 0.10361572998892288 3 1498 2 772 4 708
258 1.7106667240019382 3.6287258858674627 5.466048360016539 144 165 184 0.67865078069798968 3 1546 2 1377 4 823 1 635 1 1187 6 1357 7 1802 8 1751
1340 1.1707106611902889 3.7533448437715387 5.3687832134798166 100 77 58 0.63146524329334941 4 1954 7 2112 8 2094 9 1423
231 2.6721480011433725 3.4980099816626331 6.1712217251497092 188 181 196 0.37046977444842122 3 1503 2 1387 4 1685 1 1204 5 1161
1341 1.0250950315492426 3.4863626380265047 5.5050023726615311 0 66 122 1.0409486228104796 1 1472 2 1631 8 2112
260 1.7022501869265954 3.6785032711652508 5.4394483416918185 171 158 117 0.13033191445538206 3 1548 2 1375 1 708
1342 2.4025107714165448 -0.7984350562360516 7.1117892504032847 164 166 175 0.37958598108443392 7 2186 8 2276 9 1981
233 -0.033413345196695921 3.5704032388144369 5.7338771540804458 198 167 188 0.50203847220195752 3 1510 2 709 4 890 1 495 8 1526
261 1.1565409936392959 3.7374540755254437 5.3830559437481309 152 117 113 0.068721084809692162 3 1563 2 856
1343 2.4365332376601185 -0.80191170474231788 7.0219194542789678 124 63 67 0.50984282602431974 7 2321 8 2429 9 1980
234 0.034676212643639071 3.6040160987688554 5.7089724524347911 199 165 181 0.26238666248259557 3 1512 2 1308 4 1412 1 499
262 1.1565409936392959 3.7374540755254437 5.3830559437481309 152 117 113 0.068721084809692162 3 1564 2 857
1344 1.0335009185067663 3.6368018516237193 5.4211442672614938 134 116 61 1.0543879272257568 2 1838 7 2375 8 2452 9 1820
235 0.034676212643639071 3.6040160987688554 5.7089724524347911 199 165 181 0.26238666248259557 3 1513 2 1307 4 1413 1 498
263 1.1845805115843309 3.7393297305679143 5.3924374534090349 92 57 47 0.45522919569830628 3 1566 2 1352 4 1394 1 606 7 1560 8 519
1345 0.62291435360003933 -0.15899365313906821 7.0034128482907381 43 42 51 0.85412997505198651 7 2362 8 2476 9 1723
236 -0.052040296778883888 3.6160163179573708 5.7204400058424767 203 148 173 0.42028877174447488 3 1514 2 711 4 1409 8 1529
264 1.1652779676883798 3.7857208820035098 5.3540451024212636 157 148 116 0.65525775164000843 3 1567 2 1355 4 1416 1 603 7 1899
1346 -0.1257733883721327 3.1732804890388393 5.8786844824295876 86 78 96 0.97368474191428456 1 1757 8 2568 9 2168
237 -0.052040296778883888 3.6160163179573708 5.7204400058424767 203 148 173 0.42028877174447488 3 1515 2 712 4 1410 8 1528
265 1.3886605045522105 3.8163933669059933 5.3761009256205483 110 79 59 0.28382157027888189 3 1570 2 867 4 864 1 696 8 1296
1347 2.5435418996850672 -2.5066344676489956 9.2975323332577968 31 57 75 1.4686931176785809 7 2427 8 2613 9 2388
238 0.004338822568172862 3.6452606576866073 5.7056253548722013 118 40 69 0.56978882327830538 3 1516 2 714 4 1411 1 497 8 1949
266 1.4737415345018943 3.7024618104220552 5.4433534735626026 82 47 34 0.48316921450159106 3 1574 2 1358 1 617
1348 2.3739592979807651 -2.4585944074377371 9.413375267202678 33 50 53 2.5933340709263768 7 2486 8 2617
239 0.98816649170324344 3.6603061187949653 5.4336760985898422 169 149 123 0.30473819859452306 3 1517 2 801 8 1378 1 567
267 1.2261444101805083 3.8490509467191796 5.3340683316290107 116 83 67 0.56584166514605105 3 1584 2 860 4 904 1 688 7 1009 8 1341
1349 2.8527921666558615 -2.6441549464239724 9.3793688613982091 28 44 52 0.53276805720524067 7 2423 8 2652
240 1.0568579022758162 3.4779255895392089 5.503818505288069 0 60 117 0.22604989964621941 3 1518 2 1323
268 1.2247977178162115 3.8505277645400278 5.3342306926609959 116 83 67 0.40448950086809177 3 1585 2 861 4 905 1 689 8 1342
1350 2.3595228547293861 3.2886070072100666 6.2706611702045167 45 53 83 1.3445776484827101 1 2096 4 2338 10 2146
241 1.1338452743038365 3.5554486991961278 5.4763901727807589 48 54 78 0.41571103959505767 3 1519 2 807 4 786 1 1128 8 1372
1351 0.89820128541741939 1.6165315312688218 7.0155608073438884 186 206 242 0.7821510657272247 5 2128 8 2800
242 1.3646031069796423 3.5814071453879479 5.4882627498723444 126 119 101 0.1489468770321313 3 1522 2 1342 8 1335
1336 0.8848466580279345 -0.47391130494166345 7.1312825540564369 44 33 53 0.45735072921591247 3 228 6 1201 8 1915
227 1.1974232129174291 3.4032507702130825 5.5518632225779667 100 108 99 0.44481352173453875 3 1492 2 752 4 773 6 1418 8 1364
1238 0.70408712595565126 0.29682055396791118 6.7436712232972447 103 103 95 0.39490827252514132 6 646 7 1506 8 1494
129 1.8010511857173781 3.5788053307779539 5.4885369705254821 154 179 197 0.20054823937271937 3 930 2 903 1 654 8 346
283 -0.15885505916908235 0.26477876055445204 6.965678174396607 91 83 71 0.38211478129070714 3 1683 2 1063 4 1841
1365 3.0483923356259459 1.8174393475630821 7.0440306948514415 200 215 237 0.59609283588854123 9 2415 10 2435
256 1.8607435291813794 3.5654442119209051 5.5219844285487483 56 74 103 0.31594062122122618 3 1544 2 1381 4 1373 1 1196 5 1449
1306 0.72712833130642507 -0.60576915445780277 7.222622136604044 44 43 45 0.5107181986612096 6 2269 7 2538 8 2665 9 2419
197 -0.85935328849174075 2.2531552406070894 6.2285512416906226 213 175 186 0.20019660411596499 3 1354 2 480 4 1245
1352 2.1542885577970372 1.1237152212100538 7.3244965470170929 19 28 32 2.601130049071803 1 2233 7 2690 8 2812 10 2672
243 1.2857791746335043 3.6349613839079238 5.4527948134404909 95 58 47 0.30327806637141091 3 1524 2 1340 4 858 1 610 7 1522
1237 0.70408712595565126 0.29682055396791118 6.7436712232972447 103 103 95 0.39490827252514132 6 645 7 1505 8 1495
128 1.8307968702264277 3.579830671071742 5.49561441690207 148 172 194 0.36518909884513873 3 929 2 905 4 827 1 657 5 815 6 1322
1364 3.3051209399336474 1.9639805970148492 7.0065252201125743 0 0 0 0.39760874458763384 5 1560 7 1734
255 1.8139382088465097 3.5409177123701889 5.5134382093717917 149 174 197 0.43138047623302933 3 1543 2 1380 4 1363 1 1192 5 1208 6 1315
1305 5.6791085403678245 -4.5923914820313794 11.46860228240241 21 33 39 1.5126179064836676 6 2251 7 2522 9 2499
196 3.9461960318195017 2.1334725520644726 6.9518882190907094 106 132 150 0.64765749509281156 3 1345 2 695 4 454 1 1087 5 478 8 133 10 922
534 -0.70622628304503554 1.3407494695586415 6.2773693464979017 7 41 97 1.4382978017837786 3 2656 2 2259 4 2374
1236 0.6509748634974607 0.28320147441682098 6.7489177637079329 102 104 99 0.30611352652757784 6 648 7 1504 8 1498
127 1.8311188624899266 3.5798874808873324 5.4960451869272298 148 172 194 0.33875193963581973 3 928 2 906 4 826 1 656 5 816 6 1321 8 343
281 2.408649862885635 -0.1888887535838768 7.7651943640056604 126 136 141 0.18260924344575868 3 1673 2 1118
1363 2.6097693646237721 -0.046550997148496975 7.6655006313972329 69 43 58 0.33588925768291006 3 1191 2 338 4 1072 5 979 9 304 6 1150 7 1305 8 1310
254 1.7242309772742392 3.5924994165334416 5.4853261603502128 162 188 208 0.21433099417427146 3 1541 2 1374 4 1366 1 1185 6 1661 7 1799 8 1750
1304 3.0276095599282646 -1.0346938654196898 7.0099825762723809 81 89 97 1.5405548603035963 6 2256 7 2477 8 2678
195 3.9462432561331071 2.1338217827567156 6.9507425135681125 106 132 150 0.67726863737112108 3 1344 2 696 4 455 1 1088 5 479 8 134
533 1.1341802170117266 0.98187006461686333 7.3334667798360149 96 118 130 1.2133940604690052 3 2655 2 2263 4 2408 1 2145 5 2073 6 2420 8 2755 10 2491
279 0.59785268833631056 0.04996922890117933 6.8910331782149612 47 54 48 0.23273925274088941 3 1668 2 1013 5 1351 8 2354
1361 1.9137672723010337 2.0347837480015762 7.1142517826438594 196 222 251 0.85757381346525796 1 2223 10 2664
252 1.6756541191733514 3.6244776168857329 5.4716578331513297 85 82 95 0.25545845517158733 3 1537 2 1373 4 818 1 634 6 1363 7 1431 8 1240
278 0.58457422747459853 0.0059534449771478926 6.9161333868686619 16 19 18 0.35067579080156402 3 1667 2 1012 4 1544 5 1350 6 1869 7 2248 8 2355 9 445
1360 1.2575214414500167 2.0094532614324336 6.8512046276074665 24 35 35 0.79264573102277536 1 2235 9 2872 10 2644
251 1.67481667107899 3.6047823755360109 5.4816026402323814 162 187 210 0.17634879263079323 3 1536 2 1370 4 1371 1 1182 6 1666 7 1430 8 1239
277 0.61515840769560282 -0.029040025761064903 6.9311676477077917 45 52 46 0.23552294757410108 3 1666 2 1010 4 1543 5 1348 6 1857 7 2091 8 2351 9 1270
1359 2.7864370324432692 2.1059099601132805 6.8478185127081863 0 0 0 0.54878253154006817 7 2679 8 2791
250 1.67481667107899 3.6047823755360109 5.4816026402323814 162 187 210 0.17634879263079323 3 1535 2 1369 4 1370 1 1181 6 1665 7 1429 8 1238
276 -0.095358656253451579 0.00773489655157511 6.7490555691427767 111 102 97 0.50184075450142152 3 1665 2 1429 4 1823 5 1378 4 1539 6 1885 9 489
1358 -1.5798684698315508 -0.73908181138466533 7.9266634348294147 0 0 0 1.0065293084432554 4 1994 5 1093
249 1.6328769383428963 3.6154131745214215 5.4770223946121126 161 187 208 0.23915385987228058 3 1534 2 1364 4 1369 1 1178 6 1667 7 1465 8 1287
275 0.96891399971130954 -0.35391401283790691 7.0695749244812749 36 43 58 0.34067682654057635 3 1657 2 1436 4 1515 5 1333 6 1846 7 2211 8 2462 9 1231
1357 1.7634384896239643 2.0221726163255305 6.8743963495418967 205 231 249 1.4754021213173203 7 675 9 1311 10 722
248 1.5496486545319299 3.5993682747577957 5.4904828378707684 166 187 208 0.3488545415268991 3 1531 2 876 4 1351 1 1170 6 1394 8 1288
274 0.87881219129687727 -0.48724829165643846 7.1480546439414852 17 17 24 0.37647750148964781 3 1655 2 993 6 1573 7 2218 8 2470 9 1230
1356 2.7972837522662624 -3.1565446964915163 9.722037575025066 131 136 136 1.2510668917218577 7 2185 8 2612 9 1164
247 1.6527229846091269 3.5899761494195626 5.4900585704905325 76 94 125 0.410243743098756 3 1529 2 1365 4 1358 1 1179 7 1432 8 1236
273 0.59879670874247126 -0.29384140157538829 7.0690271855320193 133 160 171 0.32611276585770954 3 1653 2 987 4 1528 5 1019 7 2229 8 2348
1355 1.6515120745266412 3.9880590057271332 5.3009534521753245 152 181 200 0.45473756877685539 4 1766 1 1509 8 1756 6 1925 7 2078
246 1.6781651753526701 3.5459145030679791 5.5094014454018811 94 109 134 0.34199949081745357 3 1527 2 1366 4 1354 1 625 6 1352 7 1428 8 1233
272 3.2123955374962883 -0.82937858606935033 6.9718024744508531 76 90 101 0.25684131508208052 3 1638 2 1031
1354 1.4220558987179515 3.4343400871925698 5.5522045813836085 44 74 85 0.45819827835981125 3 2121 4 1939 8 1813 3 1888 7 1817
245 1.6781651753526701 3.5459145030679791 5.5094014454018811 94 109 134 0.34199949081745357 3 1526 2 1367 4 1355 1 626 6 1353 7 1427 8 1232
1353 1.7231895299095701 0.55358233838322035 7.6584479487812427 181 201 235 1.1235767014946918 3 2733 7 2696 8 2813
244 1.308531657707614 3.6510567896843744 5.4534931655508823 152 139 102 0.31943747618821067 3 1525 2 1353 4 1391 1 612
1335 2.3509347634406503 -0.27018248477223294 7.9462749994298054 159 170 181 0.20614708770252188 6 1549 8 1838 9 1708
226 1.0874276762546531 3.402339285312296 5.5417882766202329 103 107 93 0.17333536461103344 3 1488 2 1325 4 1340 1 532
1333 2.8336617245060332 2.4156205767713965 6.7510497225270241 179 201 213 0.39815026881301679 5 1396 8 1730 10 1759
224 0.99096063262044132 3.4081431648571461 5.5472185018212246 137 133 131 0.34818728982426034 3 1484 2 744 4 1336 1 1109 8 1389 9 719
1332 5.6478299340242435 3.8974876704960471 6.3403140903973458 152 162 163 0.4779010833591042 6 1083 7 1198 8 1674
223 0.97226763578970787 3.3931820540347624 5.546120004259822 46 37 56 0.011172868034543187 3 1483 2 743
1331 2.8054883552421388 -2.5771906223660532 9.3162758048245422 57 54 63 1.3088246275188209 7 1282 8 1382 9 1998
222 0.85774288634458562 3.434018672774021 5.6140115377762276 50 69 95 0.1893023456750855 3 1482 2 739 4 769
1330 1.1469750923558379 3.4760977913505933 5.5219046357194337 4 58 103 1.132837795136111 4 1341 7 1555 8 1371
221 2.8988144557346041 3.3551123571907358 6.271980810166899 88 79 75 0.40903825952819928 3 1460 2 1389
1329 2.415078133896932 -0.38150335034964411 7.4389343864248065 160 160 173 0.40339452168223522 6 1124 7 2021 8 1308 9 285
220 2.3946127319862591 3.4473888132028723 6.183800151185161 145 25 54 0.022655231066285836 3 1457 2 842
1328 1.8983608789959803 3.5994382371276221 5.5349679593219863 137 168 184 0.083795309605930957 6 752 7 1383 8 1221
219 0.34974904363423442 3.2241256136364882 5.9350432696753312 102 68 76 0.44800712329439935 3 1454 2 1302 8 2144
1327 22.12623771542237 -7.8045670300806407 23.040009109127908 101 97 81 0.56501110197130278 5 32 7 26 8 1043
218 0.1818058198478224 3.2700299146846596 5.8705573237275139 88 78 94 0.46766590081221754 3 1452 2 681 4 1330
1326 1.0875676510213017 3.5609055216803367 5.4651116242046873 122 120 91 0.37113624956193797 2 805 7 1006 8 594
217 0.15268606455103673 3.2394490356281511 5.8572449294425066 81 78 92 0.96118313527936949 3 1451 2 1293 4 1326
1325 2.3806716923512359 -0.15679098005254666 7.9808350042516967 107 98 101 0.37204688382234435 7 1341 8 563 6 1167
216 -0.080364589780629825 3.2830996132769372 5.7959145912756904 98 70 83 0.55987295472855414 3 1436 2 1282 8 2201
1324 2.8141620256857274 2.4345245041435661 6.7642480412863053 15 26 46 0.13735186201262645 6 492 8 259
215 -0.01879953662988787 3.2062343300369438 5.8631954941505295 77 74 89 0.13021886096132848 3 1434 2 1286
1323 3.0488469147678052 1.7539091680297778 7.1187912127909891 33 43 66 0.28224061219005248 7 496 8 256
214 -0.19278875278208535 3.0935026920348938 5.9011114175265416 104 70 93 0.57752218772484853 3 1423 2 635 4 1288 1 426
1322 3.8304628413911561 2.1541870510873462 6.9084917836516286 175 198 217 2.0781109855281299 6 2436 7 2634 9 2761 10 2634
213 -0.15832716406365929 2.9748910557703692 5.9570725392216159 148 158 176 0.12696056138769135 3 1406 2 638
1321 3.3278260467140348 1.1396640318289757 7.4101651777172481 104 96 102 0.5795044086851916 2 1566 1 1613 7 1733 5 1010 6 1155 3 1282 8 1715
212 -0.15832716406365929 2.9748910557703692 5.9570725392216159 148 158 176 0.12696056138769135 3 1405 2 637
1320 2.8515671726561016 0.2867543879765212 7.8481829968703423 133 129 123 0.76533998268142378 2 2264 1 2143 7 2572 3 2568 2 2225 4 2317 5 1985 6 2320 8 2720 9 2528
211 3.0676421374509006 2.9665419885081938 6.4754719212470837 105 130 153 0.81379229817166987 3 1395 2 786 4 1220 1 596 5 592 6 501 7 504 8 164
1319 3.780095992598572 1.741989678723131 7.1237127430868696 106 129 141 1.7713070184246906 3 2657 2 2291 4 2413 5 2028 6 2367 7 2604 1 2187 6 2412 8 2707 9 2627
210 -0.28460874243552725 2.7923339658994415 6.0179710190502993 63 60 86 0.31763979120246555 3 1393 2 603 4 635 1 376
1318 4.8060946960179693 1.3537534512260612 7.4724061815268223 139 131 119 0.60513667555274842 3 2575 2 2231 4 2283 1 2087 7 2475 5 1983 6 2313 8 2581 9 2527
209 -0.28460874243552725 2.7923339658994415 6.0179710190502993 63 60 86 0.31763979120246555 3 1392 2 602 4 634 1 375
1317 0.61546731827718903 -0.41047799518606198 7.1241424037454015 113 136 150 0.31317178982625715 3 1983 2 1694 4 1807 7 2360 5 1549 6 2001 8 2569 9 1720
208 -0.39347812358404283 2.7821904059607983 6.0128100599883147 68 76 100 0.24400847573119747 3 1388 2 1248 4 632
1316 1.9563012810573612 1.9085771068941852 6.9015135764047688 184 207 242 1.5002335339737365 6 2507 7 2691
207 -0.39360893388692364 2.7827272090432333 6.015696128400748 68 76 100 0.27014599097601055 3 1387 2 1249 4 631 1 1032
1315 2.5692414235692134 -1.5811938779834986 8.7306550690340465 155 146 137 0.95951734352016571 6 2490 7 2685 8 2805
206 -0.4238121896830242 2.7720295661014962 6.0093854666849413 91 100 129 0.27256899290598546 3 1386 2 1237 4 1268 1 1030 9 931
1314 3.5088635568107032 1.9506546701616301 7.0075030211224831 25 33 32 1.203436086042396 1 2220 7 2659 8 2768
205 -0.50987958974658465 2.7245222097359525 6.0257635065670367 80 84 107 0.66734894847510007 3 1383 2 1234 4 622 1 1029 9 936
1313 3.4791043159479846 2.0239510334116986 6.9631172639564989 27 35 34 0.71193832309880167 4 2468 5 2125 9 2816 10 2651
204 -0.63097068214741125 2.6432118071203607 6.0615394976999566 184 164 152 0.19110536259791855 3 1381 2 558
